# .PCD v0.7 - Point Cloud Data file format
VERSION 0.7
FIELDS x y z
SIZE 4 4 4
TYPE F F F
COUNT 1 1 1
WIDTH 1650
HEIGHT 1
VIEWPOINT 0 0 0 1 0 0 0
POINTS 1650
DATA ascii
1288.2745 5517.3584 13901.659
1293.9553 5513.6533 13898.645
1297.0283 5511.4126 13896.501
1300.4983 5509.2886 13893.953
1305.7791 5517.9082 13888.117
1308.3955 5507.4663 13892.033
1311.88 5505.7798 13887.53
1316.0491 5504.7261 13889.321
1324.27 5508.5498 13880.28
1328.2184 5504.9526 13881.411
1337.8501 5495.4502 13875.96
1341.601 5492.5254 13876.806
1348.13 5500.9702 13876.03
1352.2925 5499.4727 13877.886
1356.51 5498.6401 13881.1
1358.99 5495.1299 13872.31
1333.1163 5319.3228 13445.893
1334.735 5315.4824 13445.633
-54.57 5975.6802 14618.83
-49.43 5976.5 14626.73
-40.110443 5972.127 14609.186
-9.8299999 5944.6001 14554.18
-5.27 5940.3101 14547.61
7.2600002 5937.6899 14527.29
10.965463 5934.3682 14533.437
16.92 5932.8101 14529.28
20.92 5938.71 14521.9
24.9 5936.9502 14517.64
29.450001 5935.9302 14513.19
33.990002 5932.77 14509.5
39.119999 5935.3901 14510.03
42.450054 5922.7603 14506.98
46.41 5921.1201 14501.04
49.849628 5921.2817 14501.131
55.706589 5925.7632 14496.883
60.901989 5927.2349 14492.274
64.079292 5926.2534 14491.07
68.057198 5920.0342 14486.531
72.481163 5922.6758 14489.312
76.967873 5916.2822 14487.996
81.231857 5914.7612 14485.884
88.547318 5912.3774 14482.264
93.617249 5912.5933 14479.924
98.23027 5917.4688 14478.268
105.28805 5911.8022 14477.976
109.78172 5913.8188 14477.053
115.01134 5910.5127 14475.9
118.91068 5908.4951 14474.794
122.80601 5916.1523 14471.577
126.94555 5915.4136 14471.669
131.97176 5913.6567 14472.158
136.45233 5913.5669 14470.59
140.99835 5911.4951 14468.29
144.49879 5913.4468 14470.087
149.14445 5915.2476 14471.262
175.59683 5890.3169 14418.443
179.40611 5886.7656 14418.82
183.50299 5887.5967 14421.085
187.06865 5882.2881 14418.253
192.59 5892.9902 14415.72
196.9903 5889.1611 14410.632
201.48 5888.2998 14410.93
205.41 5887.6899 14407.77
213.73 5883.3398 14397.87
264.75626 5795.9346 14205.852
268.50711 5794.209 14205.502
285.38669 5801.5298 14208.896
289.04083 5801.146 14209.537
295.9144 5805.9424 14212.698
299.53702 5804.4717 14214.182
302.82397 5801.9253 14213.447
307.0452 5801.1089 14214.202
311.68704 5802.3125 14216.56
316.16147 5800.2822 14215.939
320.42999 5799.04 14207.75
323.75873 5798.3237 14206.686
328.54373 5799.5049 14202.161
332.53281 5797.1367 14204.514
337.00055 5797.4893 14202.969
341.24747 5794.9189 14205.506
344.30737 5792.8218 14203.123
349.57391 5788.2529 14202.267
354.89542 5799.0835 14203.173
358.85757 5797.4014 14200.934
366.4776 5794.8989 14198.493
371.44 5793.9199 14198.77
376.11969 5796.9819 14205.61
380.56186 5797.0083 14205.495
383.86148 5795.8242 14200.969
388.9129 5796.4292 14203.78
392.71439 5794.2104 14204.589
397.52634 5791.8652 14204.266
401.36191 5788.8511 14204.158
413.60718 5789.1543 14199.321
418.55145 5789.6211 14204.172
422.38806 5787.9688 14201.389
426.10135 5786.4019 14200.354
430.16605 5788.1104 14204.462
435.02301 5785.9326 14200.244
438.92999 5785.8901 14198.5
442.07001 5783.2202 14194.52
477.02316 5707.0981 14023.145
486.2348 5705.5483 14025.296
495.0965 5714.2197 14023.105
498.76999 5710.1499 14018
502.92825 5710.3423 14022.826
507.97302 5707.0371 14023.385
515.22192 5702.9971 14025.273
520.69269 5712.9263 14022.928
525.2597 5710.1157 14023.668
529.5979 5709.1797 14022.246
533.37659 5708.2227 14022.517
537.13043 5707.4688 14024.215
541.39575 5705.6797 14019.876
545.80475 5705.8745 14021.208
550.46198 5707.3008 14023.573
554.57251 5705.6689 14023.321
557.82751 5703.981 14022.807
562.58453 5698.5552 14023.077
565.23712 5697.5161 14021.684
571.95233 5703.3223 14021.943
575.19342 5700.9331 14021.711
578.98761 5698.6738 14023.091
584.25714 5701.5908 14021.336
588.79498 5696.0605 14022.685
592.93304 5705.6538 14025.459
595.28809 5692.5566 14016.474
600.52911 5705.7773 14027.357
603.43732 5692.6162 14019.674
608.01727 5693.1279 14023.902
616.20001 5702.2402 14024.76
620.66028 5698.9976 14019.201
624.23688 5697.1074 14019.858
628.7851 5695.7749 14021.854
635.62 5692.8701 14024.46
641.2146 5695.1489 14020.455
644.44025 5687.0723 14017.913
648.45557 5689.0908 14021.991
651.68323 5686.6123 14021.162
656.39014 5691.3252 14025.711
660.59998 5688.96 14019.93
670.40057 5693.3828 14025.208
672.34534 5684.9438 14020.94
677.70367 5694.2578 14023.194
681.59265 5692.4829 14022.576
694.87 5693.2998 14023.1
699.17999 5692.27 14019.95
715.6532 5686.7612 14019.789
720.35999 5688.8799 14021.98
724.83807 5684.9346 14021.63
729.10999 5687.9502 14030.12
736.5379 5684.8867 14022.562
741.35394 5685.8008 14024.449
745.73547 5683.9521 14023.484
749.95178 5680.293 14022.244
753.16022 5677.2822 14018.346
756.95831 5676.1714 14018.523
761.79449 5675.1553 14018.591
766.24646 5675.1724 14020.024
769.89838 5675.6626 14019.191
773.3288 5674.7515 14021.663
778.24524 5677.4355 14019.01
782.46527 5677.2139 14019.182
787.14771 5677.8384 14018.471
793.82806 5673.8384 14018.734
797.92999 5672 14019.65
802.54016 5674.7075 14020.742
809.67999 5668.7798 14023.52
813.39227 5666.9126 14022.481
819.14825 5672.2959 14020.464
822.39075 5665.2139 14021.447
828.01923 5669.9531 14019.288
835.31085 5674.3423 14020.348
839.27002 5670.0098 14019.66
843.45703 5666.873 14019.026
845.64215 5663.3223 14018.714
851.02728 5662.0703 14020.344
856.31 5668.7202 14020.78
860.22034 5666.2061 14019.415
864.6333 5661.7061 14017.953
868.06714 5661.8901 14017.929
871.44464 5659.0576 14015.603
876.29999 5657.5088 14015.79
881.76904 5660.7271 14022.432
885.22064 5657.8262 14020.096
888.953 5657.3696 14021.745
892.1792 5653.1958 14016.637
898.35999 5663.6699 14018.56
901.32397 5659.4946 14019.293
906.91998 5658.04 14023.63
909.37274 5652.3574 14021.1
915.21893 5660.9971 14018.851
919.4151 5659.2031 14018.978
923.396 5656.8955 14018.086
927.85138 5656.6533 14018.774
930.71405 5653.5303 14017.124
935.80627 5655.2334 14018.995
939.99512 5652.8599 14020.298
944.60413 5653.2808 14021.171
948.39343 5651.2793 14023.351
950.74646 5648.9106 14022.496
955.0921 5644.9404 14020.128
961.07416 5652.1836 14017.591
964.58887 5649.4595 14019.939
967.49432 5647.3423 14020.317
971.42444 5644.1006 14021.606
976.48346 5646.6484 14019.099
979.45001 5639.0098 14016.49
988.04907 5645.5815 14019.341
990.57422 5636.9214 14019.403
995.71216 5639.3345 14019.884
999.93756 5637.9214 14019.839
1003.3289 5635.3184 14019.732
1008.5 5645.6099 14021.71
1012.037 5642.2178 14020.436
1016.023 5636.9756 14020.382
1021.0064 5635.9233 14020.763
1023.806 5633.2598 14022.31
1027.3101 5629.23 14015.37
1034.0173 5640.6367 14020.721
1037.9225 5638.5786 14022.1
1042.2893 5637.8438 14020.688
1045.47 5633.8599 14015.41
1049.5447 5634.7974 14018.122
1054.66 5635.1802 14020.78
1058.84 5630.6802 14015.68
1062.49 5629.2402 14017.71
1067.4396 5623.5679 14018.923
1075.99 5632.6299 14018.56
1079.6122 5628.603 14017.972
1083.1431 5625.6045 14017.463
1086.2423 5622.0625 14015.45
1090.6216 5621.3169 14016.982
1095.22 5622.0601 14021.31
1098.9047 5618.0195 14017.989
1102.6609 5618.4185 14014.48
1107.739 5619.896 14021.193
1111.9399 5618.8901 14019.65
1114.8916 5612.1562 14016.01
1119.8822 5612.7476 14016.019
1124.5059 5619.8994 14016.482
1128.5928 5617.585 14017.598
1131.7703 5611.6592 14018.585
1136.4877 5612.6978 14018.32
1139.9034 5609.7544 14019.359
1145.1847 5618.9204 14016.946
1150.0497 5618.7207 14019.756
1153.4822 5614.8286 14017.509
1155.2054 5605.5605 14018.968
1162.2446 5602.0596 14014.047
1175.6669 5601.748 13998.173
1178.5958 5597.9238 13995.844
1181.39 5591.6001 13990.21
1185.8435 5591.5645 13994.376
1191.9728 5596.689 13993.858
1195.8438 5596.3418 13993.676
1199.0719 5595.6572 13995.409
1203.1866 5593.7124 13994.207
1207.3 5592.1802 13989.5
1211.1899 5586.8101 13986.33
1220.58 5573.3301 13962.82
1225.7869 5572.1455 13956.729
1232.52 5566.5601 13941.46
1235.4644 5561.5005 13936.745
1238.5 5555.7002 13932.08
1243.03 5555.96 13933.19
1246.36 5550.7959 13926.771
1250.1 5550.0601 13926.7
1253.9595 5549.7754 13926.488
1257.5699 5546 13921.06
1262.26 5544.52 13916.25
1266.0035 5541.5601 13912.106
1268.66 5538.23 13906.62
1272.7789 5536.6709 13906.856
1277.8611 5534.3252 13904.778
1281.3868 5539.2314 13898.455
1287.4952 5534.7983 13896.379
1288.0071 5530.0142 13896.724
1291.8947 5527.5879 13897.658
1296.6404 5526.9492 13887.49
1299.8568 5521.6074 13892.467
1302.3423 5517.2788 13885.492
1310.6965 5517.6475 13887.997
1316.4222 5520.7676 13884.056
1319.4673 5519.7725 13882.982
1322.1816 5513.1431 13882.934
1334.8101 5512.8398 13877.57
1350.37 5510.1001 13870.56
1355.5073 5510.2378 13876.59
1358.4011 5505.9941 13869.782
1361.9399 5507.0498 13873.88
-54.779999 5998.9302 14645.62
-44.869999 5979.77 14610.6
-40.830002 5976.7798 14605.25
-19 5960.25 14562.57
-4.71 5954.6401 14536.89
2.6458097 5953.856 14533.678
7.2800002 5952.8901 14532.64
12.4 5946.9702 14530.09
17.599638 5947.812 14522.169
22.971092 5948.708 14516.646
24.91316 5948.124 14516.144
29.51 5948.0601 14513.08
43.09 5933.1802 14502.71
46.364834 5938.5459 14498.343
50.72715 5936.9526 14496.36
56.833569 5931.2837 14494.338
61.109959 5938.0259 14488.567
64.18 5936.2202 14484.86
68.261864 5934.2822 14492.067
72.650002 5930.8198 14483.79
77.18 5929.7402 14489.18
89.029999 5923.4302 14480.13
93.497528 5924.7686 14479.239
97.952827 5924.0938 14477.601
101.94144 5924.1489 14476.063
105.86452 5922.2192 14475.464
115.13 5922.0601 14473.92
119.57 5917.1001 14465.97
123.21 5928.1401 14471.36
127.75919 5927.6006 14471.46
132.21001 5923.5498 14466.57
137.39999 5927.1299 14471.65
162.42 5906.3301 14420.47
170.88 5904.8301 14419.36
175.83176 5902.1714 14416.991
180.05684 5897.4521 14415.002
183.86377 5897.0503 14415.148
188.54518 5904.1519 14411.474
192.78381 5900.2896 14404.531
197.42999 5902.5098 14411.76
201.78999 5897.48 14403.82
257.85001 5808 14210.34
265.23981 5810.8286 14212.417
270.19 5809.4902 14209.5
274.76117 5811.8569 14211.78
282.80563 5811.1558 14209.534
285.58945 5809.4917 14210.005
289.66693 5806.1904 14210.859
303.73245 5815.2432 14214.609
307.63809 5811.7163 14211.237
312.25296 5814.377 14218.256
316.60999 5810.8101 14214.59
320.89999 5807.54 14199.41
324.14001 5805.5 14196.82
333.25052 5809.7695 14202.941
337.58841 5808.3125 14200.182
341.93915 5805.5654 14200.842
345.20505 5803.2876 14199.249
350.14246 5806.3232 14201.911
355.72626 5810.7935 14203.944
360 5807.3701 14196.81
362.71826 5796.9731 14202.729
367.86627 5808 14201.329
372.31119 5807.521 14203.002
377.35327 5808.1147 14202.781
381.32733 5808.001 14202.648
384.6889 5808.7876 14203.9
389.39847 5806.1548 14199.681
393.99036 5804.5718 14201.117
397.98547 5801.6987 14201.663
402.64297 5800.8398 14202.982
405.74207 5796.9917 14203.475
410.64258 5804.3999 14201.555
415.50903 5800.499 14198.077
419.9328 5800.5244 14201.312
423.11649 5797.9727 14197.282
426.97849 5797.9165 14198.833
431.61456 5799.8711 14204.467
435.96887 5798.5542 14201.63
439.97824 5798.8013 14201.611
443.73093 5797.3906 14200.306
451.25 5793.6001 14198.21
456.76291 5797.6304 14199.046
463.76794 5799.9375 14200.993
509.13 5721.1899 14027.93
513.24994 5717.3271 14021.165
516.60107 5715.1699 14025.287
522.62665 5725.4819 14023.46
526.24567 5720.7466 14020.876
530.83948 5722.2031 14025.037
535.09393 5720.8281 14023.886
538.56866 5722.0752 14028.036
542.79114 5720.6445 14026.856
547.74194 5719.2993 14027.48
551.78143 5718.5776 14025.106
556.02374 5718.1011 14022.835
558.48291 5716.8984 14025.263
563.70001 5713.3799 14029.03
568.10272 5708.6836 14022.928
572.56921 5713.8516 14018.792
576.43573 5713.1924 14020.043
580.00189 5710.0469 14021.214
584.4729 5707.7266 14021.574
589.25806 5712.2495 14022.137
594.28589 5718.6973 14023.347
596.80023 5712.377 14023.753
601.23511 5716.8965 14021.911
605.10999 5707.21 14028.19
609.43427 5706.0479 14027.051
617.40997 5713.4399 14023.5
622.63586 5714.3608 14025.567
630.25439 5709.2446 14026.257
637.06 5705.77 14027.36
641.76263 5700.9062 14021.167
645.56311 5705.5239 14020.894
651.04999 5706.9902 14024.6
661.96002 5700.7002 14020.06
667.44012 5701.269 14023.659
674.55884 5699.7095 14024.896
678.52991 5705.5361 14023.095
684.32721 5701.7134 14021.65
687.42065 5697.0264 14020.904
696.23291 5704.4336 14021.76
701.24005 5704.4995 14021.471
705.4599 5702.731 14020.358
709.68024 5700.9512 14019.24
717.35175 5699.4619 14020.627
721.64453 5700.1743 14022.562
726.10535 5697.7329 14023.039
731.00476 5697.3574 14024.177
732.8645 5692.6685 14024.386
737.23547 5690.854 14023.7
743.21033 5696.8955 14021.358
747.16998 5694.5898 14023.12
751.03955 5691.0239 14021.744
754.80542 5689.2764 14018.286
758.7243 5689.354 14023.054
763.56256 5688.3188 14021.593
767.61591 5685.4795 14015.87
771.78748 5687.5952 14022.994
774.91516 5685.8867 14020.181
779.10876 5682.6294 14019.149
783.41742 5683.3262 14019.099
788.94678 5691.2046 14020.046
793.10388 5692.1812 14020.559
795.63385 5684.6523 14018.132
800.53003 5686.48 14026.82
803.45068 5681.3311 14019.848
808.59003 5684.54 14017.2
815.33423 5677.293 14020.406
820.0918 5679.5576 14021.076
824.07874 5676.0737 14020.04
828.60272 5677.1064 14021.315
838.28638 5687.6665 14020.544
841.73175 5680.4941 14021.355
845.78558 5679.6064 14020.13
849.00238 5676.7524 14022.119
853.61139 5679.6802 14021.561
858.17169 5680.1543 14021.878
862.03149 5677.8081 14021.773
865.71216 5673.6006 14020.774
870.2887 5675.9917 14023.506
873.73163 5673.4448 14021.119
878.30579 5670.7119 14020.37
883.47797 5671.7568 14021.38
887.19836 5670.5874 14021.462
895.1629 5673.5127 14021.188
901.24573 5675.0205 14019.302
904.15912 5670.3408 14018.312
909.08191 5668.7842 14018.48
912.12885 5669.4727 14018.39
917.35992 5672.6431 14019.195
921.18286 5670.5498 14019.368
925.59161 5670.2759 14022.333
929.60242 5667.3218 14018.4
932.61475 5664.0171 14017.724
937.75195 5666.292 14020.061
942.54767 5664.8472 14021.735
946.06848 5662.9619 14017.206
949.72778 5661.1167 14019.994
953.36444 5659.0093 14016.739
958.2193 5663.0347 14020.509
962.9624 5665.5 14020.722
967.4502 5661.416 14019.619
969.66095 5658.436 14017.694
973.55908 5655.7056 14019.235
977.57446 5653.7925 14019.492
982.77954 5657.8916 14019.223
989 5652.2622 14019.932
994.75464 5656.0234 14019.567
998.27399 5650.1997 14019.581
1006.2988 5652.9336 14019.536
1010.4807 5656.3242 14019.065
1015.569 5655.2344 14021.203
1019.0417 5647.7378 14019.528
1022.5768 5645.6919 14015.792
1026.2571 5642.9473 14019.142
1029.6106 5642.2451 14019.69
1035.9301 5651.9399 14022.02
1040.035 5649.3003 14018.032
1044.0114 5647.187 14015.062
1047.873 5646.8057 14016.692
1052.301 5646.5254 14018.102
1057.2871 5646.1733 14019.458
1061.0728 5643.123 14019.002
1064.8457 5641.9062 14020.661
1071.61 5636.0898 14019.13
1078.1997 5644.2529 14018.777
1082.1868 5640.9492 14019.71
1085.9724 5636.0225 14017.878
1089.0269 5635.4248 14017.832
1092.7479 5632.3062 14015.76
1097.8601 5632.8745 14020.146
1101.9469 5631.0649 14017.261
1105.6909 5629.771 14014.143
1109.7188 5629.5117 14018.1
1114.0594 5629.3052 14018.23
1118.707 5627.5776 14020.622
1123.3579 5629.3838 14016.215
1127.5905 5631.4985 14015.52
1130.3547 5627.6787 14016.095
1134.2231 5623.6548 14016.647
1138.233 5622.7954 14016.421
1141.7216 5619.8833 14017.927
1151.77 5627.2202 14014.71
1155.64 5626.9399 14017.86
1157.9824 5616.0161 14017.219
1164.86 5614.4502 14015.51
1170.08 5615.2598 13993.25
1177.86 5612.1499 13995.46
1181.3221 5608.4644 13994.886
1184.0824 5604.5596 13994.127
1188.0703 5603.5483 13992.773
1194.879 5608.7212 13992.802
1198.33 5607.9302 13993.8
1200.9342 5604.627 13988.307
1205.01 5599.7998 13981.67
1222.11 5580.3198 13951.68
1226.47 5577.21 13954.16
1237.416 5569.585 13926.331
1240.4022 5565.0024 13929.744
1244.97 5564.5898 13926.23
1248.33 5559.6099 13918.08
1252.04 5558.6802 13919.74
1255.4603 5556.5757 13915.248
1260.05 5554.5 13914.09
1263.84 5551.4702 13905.13
1268.3594 5551.5938 13909.482
1271.0073 5548.5117 13903.924
1274.74 5545.2402 13900.03
1279.3789 5543.5249 13898.533
1285.144 5547.6895 13892.459
1287.9803 5544.0894 13891.536
1290.243 5539.9253 13891.884
1292.7058 5536.4839 13889.776
1298.8246 5531.5801 13887.517
1302.8688 5535.7485 13885.361
1305.4404 5529.8086 13887.855
1308.51 5529.27 13888.34
1314.2174 5531.8159 13880.562
1317.2272 5526.0088 13881.661
1320.9744 5524.9854 13881.461
1329.6481 5529.4395 13875.764
1334.02 5525.7798 13877.47
1337.5496 5523.834 13876.303
1343.66 5519.3398 13879.1
1348.6825 5520.7285 13875.726
1353.4508 5521.6763 13871.725
1357.33 5517.8799 13868.41
1360.8817 5516.3447 13868.663
-27.629999 5972.4302 14562.54
-23.040001 5970.7002 14558.28
-19.030001 5968.3999 14552.64
-14.44 5966.23 14545.32
-4.71 5956.6001 14527.77
2.72 5965.1802 14530.84
7.29 5962.77 14526.96
12.753316 5956.3154 14523.521
16.594936 5953.4229 14519.987
21.452066 5961.5381 14513.73
24.99 5958.4302 14510.56
29.561008 5959.1641 14510.244
34.119999 5955.46 14503.44
39.829735 5955.7871 14496.947
43.214478 5950.9263 14500.437
47.011013 5942.8989 14495.079
51.895893 5942.2334 14492.862
56.744713 5941.9282 14491.429
60.885487 5950.3945 14489.176
64.354805 5949.9727 14488.875
68.220627 5945.8452 14490.793
72.800003 5943.54 14485.17
85.2593 5941.7012 14479.008
89.96405 5946.5981 14477.661
89.822113 5941.1226 14477.542
93.779999 5936.4199 14476.4
102.27421 5935.3652 14473.423
106.31514 5936.8174 14475.875
110.83879 5936.0996 14475.176
115.35241 5934.1587 14473.805
120.13322 5944.4136 14471.144
119.96745 5937.2007 14471.603
128.06708 5941.5537 14471.317
132.50999 5936.9502 14467.67
137.63 5936.9199 14465.9
159.18658 5920.5562 14421.767
162.82898 5917.8901 14419.242
171.40315 5915.3174 14415.587
176.28183 5913.1665 14414.459
180.34515 5909.9629 14414.306
184.58809 5908.207 14412.874
187.57455 5916.7056 14410.396
197.62 5908.23 14396.23
202.14999 5907.9502 14397.9
206.09 5907.25 14396.51
242.33 5823.8701 14212.44
250.51935 5828.6367 14203.324
254.45 5819.5498 14209.02
257.24564 5824.1987 14203.131
264.81369 5826.4316 14208.682
266.31 5822.21 14210.96
270.34515 5821.3232 14210.714
275.20001 5820.9399 14203.09
283.07001 5821.7402 14205.96
286.82001 5818.2402 14205.59
296.90128 5830.8882 14216.403
304.04221 5827.3223 14216.357
308.47 5825.8501 14215.21
312.91 5825.04 14213.82
329.6936 5822.498 14201.778
334.47 5820.0698 14198.83
338.78543 5820.1919 14201.957
346.69769 5818.1338 14202.795
351.36536 5812.8301 14203.215
356.32001 5820.25 14196.6
360.99219 5821.498 14200.826
363.54999 5810.5298 14206.99
368.64572 5820.3501 14201.268
373.18988 5821.3452 14205.665
378.18909 5820.3086 14202.584
382.09 5820.2598 14202.52
386.04001 5820.6099 14204
390.43484 5819.4087 14202.835
394.70999 5816.23 14200.59
399.18488 5812.8247 14199.45
403.31 5811.0498 14199.11
406.8653 5808.4443 14201.816
412.22 5818.1299 14204.28
416.79239 5814.4619 14202.595
420.63339 5811.4478 14198.436
424.06967 5810.7021 14198.629
428.0119 5811.3911 14201.584
432.48865 5811.5923 14202.942
436.79678 5809.5015 14200.312
441.49579 5812.3052 14205.835
444.54602 5808.6602 14200.636
448.53146 5809.4009 14203.412
453.05811 5805.2505 14197.111
456.97906 5803.3247 14197.802
462.20999 5812.0098 14198.55
469.3624 5807.2026 14201.072
474.12659 5807.5962 14201.342
531.76001 5732.6401 14022.42
536.26001 5733.2998 14026.95
539.38647 5730.8838 14021.252
543.64001 5729.2002 14016.77
548.6521 5730.189 14023.003
553.12329 5730.3418 14024.43
557.12805 5730.853 14025.325
560.1908 5728.4722 14024.649
564.75812 5724.1182 14024.291
569.45142 5727.7354 14023.966
574.37054 5728.0801 14023.748
578.47076 5724.7998 14021.908
580.71417 5720.897 14020.41
586.04236 5720.2192 14022.04
590.07397 5715.7949 14019.802
595.7312 5728.8765 14023.105
597.18518 5715.7812 14021.913
603.03302 5729.1558 14023.822
606.79706 5722.582 14023.636
612.86951 5724.5273 14026.549
614.99127 5717.4478 14024.733
619.15948 5724.1064 14019.036
623.6178 5725.1235 14025.075
627.29614 5721.8838 14023.823
631.30878 5719.6689 14023.514
638.65503 5714.749 14020.218
642.66803 5713.3867 14019.783
645.3316 5709.3662 14019.685
655.85144 5716.9429 14019.938
658.87 5712.3599 14018.7
664.28577 5714.4917 14023.984
668.0979 5712.6904 14022.629
671.85999 5709.4902 14019.25
676.30237 5714.272 14020.625
680.7226 5716.1157 14019.807
685.11273 5713.3032 14020.772
689.13702 5709.3467 14021.608
694.71539 5713.6133 14023.425
697.71576 5716.6802 14023.189
702.59741 5716.6064 14022.474
706.98114 5715.0215 14021.879
711.74017 5713.1655 14020.75
718.74579 5710.7124 14019.928
722.91357 5709.2837 14015.105
727.61346 5707.479 14018.696
731.80505 5705.3472 14016.234
735.21997 5705.27 14026.01
739.32092 5701.8794 14020.268
744.54413 5708.3154 14020.933
748.9892 5705.5239 14022.193
752.97992 5703.8667 14023.821
756.90002 5705.0698 14026.67
765.24701 5700.9653 14022.893
769.70624 5701.082 14024.258
773.10126 5697.5913 14018.915
777.33984 5700.1382 14025.841
780.94751 5697.2329 14021.911
785.30438 5695.5967 14020.415
791.16144 5701.7896 14017.396
793.83838 5701.104 14017.833
798.10297 5698.7734 14020.184
801.84229 5695.9482 14019.543
803.7757 5692.6191 14020.684
809.26001 5689.2002 14015.27
817.91193 5695.7041 14020.77
821.77002 5691.04 14022.12
826.69794 5695.3325 14020.932
834.22211 5693.5337 14021.918
839.82654 5698.52 14022.32
843.33435 5693.8608 14021.04
847.55621 5692.1602 14020.721
850.32605 5687.5063 14021.775
854.57672 5685.8257 14021.603
860.38428 5692.2393 14021.776
864.27002 5691.8398 14025.84
868.81519 5687.4492 14020.694
872.34003 5686.2202 14021.02
876.23486 5686.0278 14022.333
879.85999 5680.6899 14016.2
885.12537 5682.3696 14020.127
889.63104 5682.9897 14024.428
892.67535 5681.6943 14021.745
894.57654 5678.4331 14023.096
902.5047 5686.7808 14018.853
906.76971 5686.373 14020.707
911.4668 5679.4634 14019.695
912.92157 5675.0879 14018.595
919.5108 5682.4033 14017.505
923.41681 5681.6392 14018.147
928.07361 5681.6318 14020.889
932.46503 5681.3467 14022.363
935.15717 5677.3418 14017.157
939.5899 5677.4336 14018.666
944.3465 5676.4697 14019.348
948.37653 5676.0547 14020.144
952.19885 5674.3164 14021.998
955.62421 5672.5005 14021.993
959.30273 5668.6978 14021.732
965.08948 5675.937 14018.909
968.98615 5672.7783 14018.765
971.44476 5670.2261 14019.469
975.95917 5667.2935 14021.84
979.67023 5664.4424 14018.816
983.45734 5662.8438 14017.84
990.16412 5662.0933 14017.952
996.72333 5660.9404 14019.182
1000.2819 5661.8765 14019.849
1007.4383 5659.1123 14019.95
1013 5667.6401 14019.09
1016.8543 5662.9683 14017.538
1021.3 5660.8501 14017.88
1029.4492 5662.6841 14019.429
1033.2512 5659.8018 14020.533
1037.9856 5663.106 14020.36
1042.6304 5661.2319 14021.041
1049.9241 5657.9897 14016.88
1054.4855 5658.2837 14019.793
1058.972 5655.2349 14014.099
1063.3866 5655.2446 14018.544
1084.6901 5651.6802 14018.441
1088.402 5649.8677 14020.601
1090.9658 5645.6636 14015.498
1095.1189 5644.5151 14017.25
1104.02 5641.3101 14017.86
1108.2383 5642.4922 14017.321
1111.9026 5641.8765 14016.589
1116.912 5640.9038 14015.655
1120.1085 5636.1099 14014.678
1124.0443 5635.3457 14015.771
1130.2958 5643.7739 14018.222
1133.2018 5640.709 14018.048
1136.5677 5635.7236 14017.07
1140.9491 5634.5273 14016.717
1146.0377 5637.5713 14016.521
1147.3098 5630.1143 14015.49
1153.6969 5639.1982 14015.389
1157.8101 5637.4702 14013.45
1160.86 5630.4199 14007.7
1167.1656 5622.9663 13992.421
1169.0687 5626.8828 13992.392
1172.3955 5626.0347 13991.701
1180.17 5623.1499 13994.2
1183.8384 5621.1641 13996.248
1187.1238 5615.4048 13994.572
1190.7404 5614.7661 13995.096
1199.34 5612.6699 13977
1201.84 5608.5698 13968.49
1205.79 5603.3901 13962.01
1223.8 5585.48 13936.28
1227.51 5581.9399 13937.37
1232.5295 5582.2935 13928.999
1236.7814 5582.7598 13922.478
1238.431 5578.9424 13921.946
1243.147 5573.7202 13920.762
1247.4407 5573.1587 13919.316
1250.7806 5570.5024 13916.749
1254.2125 5568.4141 13915.624
1257.6134 5566.1396 13911.268
1261.76 5562.0098 13904.35
1265.7477 5561.6445 13900.364
1270.0491 5558.7622 13896.709
1273.3777 5556.4727 13893.922
1277.4932 5554.835 13895.936
1280.7527 5551.3394 13891.843
1290.6458 5555.5596 13889.587
1292.4919 5551.104 13888.149
1296.5273 5545.0425 13883.184
1300.295 5542.9624 13883.814
1303.6848 5541.0444 13883.034
1308.725 5544.3506 13880.688
1310.7836 5537.3945 13880.839
1315.2968 5536.3018 13878.556
1319.5297 5535.8818 13877.761
1323.2388 5533.6665 13876.302
1327.5822 5537.9048 13875.021
1331.5322 5537.5786 13869.211
1336.073 5535.7563 13875.958
1339.5 5532.23 13869.4
1346.6899 5529.46 13876.4
1350.7145 5525.605 13873.216
1356.89 5534.3901 13875.06
1360.4 5530.3599 13871.35
-27.67 5982.4199 14555.09
-23.07 5979.4199 14549.73
-19.049999 5976.54 14542.7
-14.46 5974.3599 14535.38
-9.3100004 5975.52 14538.16
-4.7199998 5970.54 14531.99
-0.64991885 5973.5269 14521.386
3.3420172 5976.6216 14523.517
8.1578255 5970.7402 14519.52
12.44 5965.54 14515.88
17.58 5963.5601 14515.06
21.6 5967.8198 14501.74
25.030001 5968.25 14504.8
30.183697 5968.2661 14503.158
34.75 5965.8799 14499.16
39.34 5967.8599 14500.06
43.357349 5954.8599 14496.624
46.851486 5953.7485 14495.662
51.870605 5953.6987 14490.989
56.860592 5953.5576 14488.306
61.034027 5960.4854 14485.525
64.519691 5960.5264 14485.176
67.848824 5956.0312 14484.01
72.93 5953.96 14480.89
78.081345 5949.9629 14479.339
81.993515 5947.9443 14478.394
85.51342 5947.4033 14478.085
93.33744 5949.2021 14475.941
99.059998 5946.0498 14472.42
106.5 5947.7998 14475
111.02134 5947.7979 14471.498
116.13448 5945.77 14471.159
124.044 5951.7412 14469.032
128.2437 5950.5894 14466.971
132.87692 5950.6025 14468.804
137.94 5950.3301 14466.98
154.59 5931.8398 14425
159.19 5933.7998 14424.15
163.89467 5931.6182 14418.642
166.78377 5919.2773 14416.901
172.26299 5929.9136 14420.58
177.1582 5925.9639 14416.184
181.5209 5919.5874 14413.345
184.8152 5920.5972 14414.412
189.12 5926.0298 14405.46
193.59 5923.48 14401.59
238.88 5835.3101 14201.21
242.61 5830.5801 14199.73
255.69215 5843.9814 14207.109
255.08473 5834.811 14205.448
259.30325 5830.7871 14206.205
263.64301 5842.2451 14206.741
266.36078 5832.8931 14206.883
271.20001 5831.0698 14203.99
275.73999 5832.3301 14201.76
280.29001 5833.7598 14207.68
287.57999 5833.6802 14214.17
292.69061 5833.9092 14215.224
297.51999 5841.8198 14213.86
308.94171 5834.8701 14208.242
313.82999 5831.7598 14201.21
318.39001 5833.0601 14208.79
325.51553 5830.0923 14198.812
330.71472 5832.9644 14198.551
335.14426 5831.3745 14197.771
339.54993 5830.9312 14197.52
347.35999 5829.75 14202.87
352.11115 5824.8789 14201.376
361.76672 5832.981 14201.698
365.49399 5832.3452 14201.338
369.2998 5830.6284 14198.611
373.85315 5831.7974 14201.341
378.95932 5832.1704 14202.688
383.35617 5830.8604 14199.87
386.74066 5832.4219 14205.668
391.00803 5829.311 14198.524
395.40927 5828.8877 14203.503
400.57858 5826.4644 14201.235
404.38 5826.4702 14207.68
407.82568 5827.7183 14204.316
413.06061 5829.5566 14203.048
417.19162 5826.3936 14203.25
421.61093 5824.2163 14199.776
425.59061 5824.9805 14204.311
428.91107 5823.4272 14201.628
433.33691 5823.0244 14201.684
437.80832 5822.8408 14204.822
442.24548 5822.2471 14201.499
445.51855 5821.4224 14201.895
449.47681 5821.3989 14203.434
453.61331 5817.8149 14198.143
458.08609 5816.2051 14198.901
463.13947 5824.0273 14199.245
470.93069 5818.9912 14199.926
475.20999 5820.0498 14203.15
479.2186 5815.813 14200.66
486.56 5814.73 14198.35
490.29932 5820.4985 14201.693
491.88419 5825.9551 14203.256
495.82999 5811.3999 14196.04
504.64001 5815.9199 14197.23
554.32074 5742.8071 14025.522
558.59467 5741.187 14022.75
562.03064 5739.1123 14023.161
565.995 5735.3125 14024.703
570.2616 5734.6675 14025.083
575.23804 5738.8936 14023.508
579.36023 5737.7686 14023.187
582.74731 5733.2993 14022.933
587.45532 5732.8843 14023.155
591.67633 5731.627 14023.427
596.92169 5739.8652 14020.089
599.1662 5729.8574 14024.071
604.69873 5740.4043 14022.963
607.70715 5728.8032 14023.836
612.95178 5728.8218 14025.153
616.71027 5732.7383 14022.264
620.24713 5736.1372 14022.043
625.2193 5737.29 14023.725
628.81891 5733.0347 14021.607
632.75391 5732.1147 14025.027
636.70001 5727.4502 14018.54
644.20599 5725.0674 14020.755
648.56097 5723.5229 14020.098
652.69025 5722.6865 14020.761
660.42999 5725.8501 14023.07
665.22998 5724.1001 14020.2
677.05896 5719.4268 14018.061
682.17084 5726.7227 14018.746
686.72455 5726.2603 14019.329
690.5426 5721.1436 14021.203
699.16998 5728.4902 14023.36
704.03485 5727.355 14020.313
708.97998 5726.7002 14021.97
713.25098 5725.042 14020.82
720.19824 5722.7461 14019.676
724.75 5723.48 14020.86
729.13519 5718.8423 14017.695
733.1571 5717.7744 14019.289
737.28998 5716.9302 14026.12
740.42914 5712.5078 14020.851
746.17639 5720.8413 14021.676
750.97253 5717.0742 14021.337
754.76898 5714.2383 14021.318
758.17004 5714.0996 14020.139
762.36957 5712.4761 14020.065
766.8844 5713.0542 14024.497
771.13849 5711.3936 14021.585
775.54999 5711.2954 14023.122
778.90393 5711.4248 14024.509
782.85284 5707.4717 14019.243
787.14111 5706.0957 14018.172
792.53619 5713.998 14018.469
795.79169 5713.8086 14019.438
799.74524 5710.5479 14020.058
803.8338 5708.2754 14020.091
807.65637 5705.1074 14022.189
811.46216 5704.2549 14020.986
818.91248 5702.1235 14020.834
823.32135 5701.7886 14020.112
827.42407 5700.0898 14020.73
831.76434 5699.5542 14021.009
835.19958 5699.0439 14021.427
844.22095 5706.418 14022.593
849.23975 5703.1382 14018.829
853.10486 5699.3062 14019.016
855.97308 5696.1196 14019.822
865.59998 5700.6401 14018.83
870.64227 5700.772 14025.044
874.172 5697.9912 14021.003
877.76178 5696.1733 14020.068
882.52118 5694.2524 14018.41
887.03442 5694.5439 14019.99
890.86011 5690.8018 14016.461
894.14911 5691.4678 14019.136
898.44897 5688.9927 14018.394
908.52008 5695.4263 14020.335
912.06946 5692.5098 14020.495
914.40106 5688.0229 14019.557
925.87103 5694.5703 14021.403
929.84247 5692.9141 14021.146
933.93915 5690.5815 14018.81
937.37274 5690.3984 14019.784
942.70392 5692.2461 14022.109
946.8382 5690.2983 14022.433
951.1676 5686.9648 14019.614
953.59082 5683.6821 14018.122
956.91248 5681.6865 14017.336
961.1109 5678.7725 14018.741
968.4881 5688.1274 14018.831
971.09064 5684.8203 14019.948
974.03937 5681.9229 14018.442
977.73267 5677.8047 14019.457
981.88617 5677.1548 14017.771
986.03046 5676.8618 14022.149
989.91467 5673.5225 14014.963
992.59998 5672.7798 14015.12
997.83325 5674.042 14020.911
1002.37 5674.1001 14020.48
1006.7299 5672.5532 14018.136
1015.07 5679.2402 14019.11
1019.07 5676.48 14019.94
1023.51 5673.0498 14019.38
1030.4135 5667.7563 14019.966
1036.3943 5678.2778 14021.126
1033.7521 5664.7476 14020.488
1040.53 5673.9502 14019.38
1045.0319 5673.5078 14020.723
1052.25 5670.4199 14019.94
1056.9399 5671.4302 14022.53
1061.4005 5667.8765 14015.466
1065.5101 5666.5015 14016.129
1069.6672 5664.0459 14017.908
1073.1713 5663.4536 14018.229
1076.4728 5658.6763 14017.958
1081.5312 5662.4941 14018.501
1086.6156 5662.3491 14016.796
1090.0298 5659.5825 14018.363
1093.5454 5658.73 14018.447
1098.0707 5656.9888 14020.211
1102.2814 5655.2002 14015.867
1106.652 5654.7515 14020.673
1110.4471 5653.7988 14017.179
1114.0718 5651.875 14016.437
1119.3821 5653.6323 14018.294
1122.5507 5648.2539 14016.784
1126.8649 5647.1924 14016.113
1131.2845 5653.6826 14015.21
1135.5386 5651.6538 14017.08
1139.34 5646.9414 14017.129
1144.2531 5645.9868 14015.553
1146.9114 5642.9121 14016.074
1151.3556 5646.4277 14013.099
1155.25 5644.23 13997.75
1159.6835 5641.9678 13996.001
1162.1793 5634.228 14000.5
1166.3043 5635.4746 13994.882
1175.0814 5638.7427 13995.541
1178.9442 5636.9619 13995.247
1203.75 5614.8799 13955.94
1225.7 5594.1602 13929.38
1228.0758 5590.1128 13929.443
1234.1836 5586.4194 13924.672
1236.4358 5591.1279 13917.381
1240.2589 5587.4805 13914.753
1244.55 5582.8301 13912.37
1249.3766 5581.6172 13910.882
1252.33 5577.4399 13905.61
1256.0559 5576.5176 13905.665
1263.72 5570.6401 13897.47
1268.4301 5571.6099 13896.65
1272.0466 5567.771 13889.533
1275.7893 5566.9014 13891.271
1279.9066 5565.3936 13892.91
1284.1681 5564.0483 13891.909
1288.4082 5563.3872 13888.058
1292.7 5562.27 13878.26
1294.6431 5558.9927 13883.197
1299.6901 5556.29 13880.396
1303.246 5553.9707 13882.262
1306.8385 5551.2847 13880.54
1314.1185 5553.9131 13877.462
1315.5237 5558.9575 13877.387
1317.5718 5546.0552 13874.095
1322.33 5547.29 13878.22
1325.7828 5544.6641 13876.968
1335.5774 5552.5762 13875.62
1339.3781 5548.0479 13874.687
1342.9338 5546.7427 13875.441
1346.59 5542.9199 13876.01
1352.5699 5535.1201 13868.6
-36.93 5994.6802 14563.21
-31.75 5993.9102 14555.32
-18.51 5987 14538.4
-14.49 5985.3901 14532.47
-9.3199997 5983.6401 14528.22
-5.1754732 5978.8271 14524.758
-0.14 5988.4102 14518.04
3.3 5984.4399 14516.32
7.9681234 5981.3423 14512.836
12.46 5976.1001 14509.91
21.65 5980.5698 14503.08
25.09 5981.7402 14505.95
30.23 5977.0298 14494.58
34.810001 5976.3101 14494.86
39.420795 5977.2246 14494.25
51.880001 5963.3301 14485.34
56.902508 5965.3799 14486.078
60.809502 5973.1011 14485.163
65.051521 5971.3838 14481.904
68.521698 5968.5703 14484.459
73.305649 5967.2109 14485.217
78.168381 5962.8242 14480.366
82.169998 5961.3599 14479.42
85.544754 5959.019 14475.329
90.110001 5957.6602 14472.67
94.74691 5960.2729 14476.646
99.290001 5959.96 14476.64
106.69 5958.2002 14470.71
128.49001 5962.1299 14465.57
150.3 5942.4102 14418.97
154.78946 5939.8848 14415.086
159.46947 5944.1646 14419.876
163.97351 5941.3394 14416.129
167.11 5931.9502 14418.22
172.41 5938.2202 14412.23
176.92999 5936.7002 14412.8
180.65521 5931.9727 14409.182
186.68587 5929.439 14404.148
189.39 5934.6699 14397.04
226.28999 5857.5601 14215.29
230.72 5855.75 14209.37
239.49001 5850.1602 14208.28
243.54778 5845.1353 14203.202
246.50999 5843.46 14204.32
251.25369 5848.3687 14206.979
256.58682 5855.3687 14209.043
260.19846 5842.2168 14206.927
267.32397 5843.6929 14205.453
271.91394 5846.4644 14212.463
276.48999 5848.3198 14211.61
281.00748 5848.6592 14214.706
284.48157 5850.9072 14215.716
288.1059 5844.4258 14211.371
293.17999 5844.77 14212.74
297.95001 5850.27 14205.4
305.04001 5846.0298 14203.75
309.54999 5846.2598 14206.8
314.44 5843.1001 14199.78
318.88 5842.0801 14201.72
326.17001 5841.8799 14198.39
331.42999 5845.46 14200.04
335.94 5845.7002 14203.19
344.00287 5842.1743 14202.671
347.97 5839.9399 14198.67
353.20938 5840.1577 14204.232
358.28903 5840.9526 14203.517
362.38135 5845.8926 14204.518
366.35999 5846.3901 14205.4
370.22723 5845.0713 14204.218
384.25967 5844.665 14204.012
387.4761 5842.498 14199.852
391.99133 5843.1245 14202.833
396.28555 5840.4561 14200.562
401.23001 5837.7798 14199.78
406.00473 5836.9727 14203.365
408.26636 5843.2515 14201.117
413.5499 5839.2715 14198.914
418.00931 5836.5854 14199.822
422.67068 5837.729 14202.516
426.35092 5834.8984 14198.588
429.67514 5834.4536 14198.696
434.19183 5834.3145 14199.957
439.19836 5833.7241 14202.029
443.0798 5833.5933 14199.936
446.50647 5833.4844 14198.755
450.87738 5832.1396 14200.597
454.66156 5830.9785 14200.992
458.87372 5827.3628 14199.391
464.25 5837.6001 14202.91
472.28061 5832.2842 14201.68
476.04001 5830.23 14198.95
480.5307 5829.9971 14204.271
487.85001 5830.1001 14206.82
492.85999 5836.1201 14199.2
497.57382 5823.98 14200.016
502.28259 5829.6543 14200.274
510.07999 5833.2002 14201.52
514.28003 5829.7002 14197.83
518.56 5827.1699 14200.33
523.07001 5827.27 14203.48
532.01001 5832.6099 14200.96
567.51001 5746.4102 14021.98
570.9024 5744.2656 14022.3
576.90997 5751.3799 14022.91
580.58002 5749.04 14021.98
583.92999 5743.6802 14017.44
592.72314 5742.1162 14022.854
598.47516 5754.0415 14025.92
600.28784 5740.5625 14021.31
605.80438 5751.1987 14020.007
609.07361 5739.3755 14018.234
613.29425 5739.0576 14020.04
618.72052 5751.9175 14025.787
621.95013 5749.5713 14023.343
625.91998 5745.8398 14018.1
630.12 5743.4502 14017.27
634.56 5743.27 14023.74
638.27002 5741.52 14024.29
645.54999 5736.9102 14020.87
650.48999 5736.25 14022.53
654.46997 5736.98 14025.4
662.41968 5738.0015 14024.674
666.66998 5736.4199 14021.7
671.46722 5735.208 14022.027
678.13403 5731.4346 14020.006
684.14001 5742.6899 14026.51
687.40588 5739.188 14023.045
692.06012 5732.2725 14022.196
700.59998 5740.23 14023.46
705.60394 5739.9546 14023.354
710.21661 5736.6919 14017.83
714.68689 5737.0103 14020.719
718.24109 5733.8457 14015.228
721.71075 5734.5337 14018.086
726.24493 5732.4053 14017.142
731.21869 5731.6094 14020.379
734.82471 5728.3813 14014.972
738.82599 5727.7896 14023.303
742.39899 5725.8057 14022.606
748.18719 5732.4048 14021.143
752.59357 5729.7861 14021.412
756.79016 5723.8726 14019.101
759.53888 5725.3853 14019.954
762.78015 5721.5332 14019.32
768.96362 5724.1719 14021.328
773.17523 5722.5283 14018.658
777.06757 5722.4556 14021.729
780.4054 5722.4946 14023.153
784.42932 5718.5908 14017.942
788.39685 5716.6572 14016.682
794.30878 5727.4531 14023.515
798.76556 5725.4033 14019.625
800.96228 5722.311 14021.981
805.1734 5718.4912 14016.771
808.85999 5713.9302 14013.56
813.68658 5715.376 14019.188
820.58002 5713.8198 14021.14
825.69 5714.3398 14022.25
837.09003 5712 14022.53
842.19409 5715.2417 14021.048
847.01483 5718.0112 14020.36
851.29578 5714.6157 14020.576
855.09247 5712.1299 14020.876
857.71704 5708.3765 14021.515
863.93597 5716.1182 14021.66
867.97449 5712.7334 14020.385
872.20966 5710.5908 14019.315
876.12329 5710.8398 14022.238
879.48749 5707.4756 14018.704
884.10889 5704.4971 14017.729
888.65863 5705.4067 14019.058
892.91003 5704.0898 14019.391
896.74719 5705.4531 14020.598
900.33826 5701.1279 14020.021
905.27838 5706.4595 14020.249
911.0202 5706.8491 14018.692
914.59174 5701.9766 14016.775
915.72284 5699.6694 14018.054
923.25439 5702.75 14018.997
927.83002 5707.9102 14023.46
931.72131 5703.02 14019.043
936.11029 5703.6011 14019.617
938.77167 5699.2695 14014.672
944.91345 5702.8486 14019.503
948.36627 5700.3677 14021.626
953.11176 5698.9146 14019.472
955.45917 5695.561 14019.635
959.42035 5694.9033 14019.917
963.49371 5691.8047 14021.011
969.35364 5698.9062 14017.712
972.55017 5694.2544 14017.152
976.11798 5694.1094 14019.191
979.81323 5689.5195 14017.26
983.33539 5687.2031 14016.402
987.85461 5687.2612 14017.705
992.05176 5685.6533 14016.569
995.67908 5687.1665 14020.652
999.81982 5685.1289 14017.782
1004.4355 5685.8555 14020.515
1008.5207 5684.0327 14019.889
1017.36 5692.0498 14022.07
1021.3108 5689.6997 14022.173
1025.8101 5685.8198 14022.26
1029.9011 5683.2275 14021.59
1038.4336 5687.5762 14017.471
1042.4927 5684.5161 14016.662
1047.2454 5685.6577 14020.701
1054.5303 5682.5898 14018.231
1058.6646 5680.9082 14016.955
1063.7714 5680.917 14019.794
1067.4619 5677.2886 14016.063
1072.0743 5672.4717 14013.862
1074.5474 5672.915 14015.623
1085.6818 5680.5698 14020.066
1089.6581 5675.939 14019.818
1092.218 5670.5137 14013.602
1095.7076 5670.2349 14016.656
1100.3256 5668.3247 14018.89
1104.5431 5667.0723 14017.336
1108.604 5665.064 14015.89
1113.2925 5665.96 14016.819
1116.3368 5663.7139 14014.491
1120.8602 5662.3354 14014.578
1125.63 5662.4199 14019.2
1128.5865 5657.2695 14014.425
1135.007 5669.1758 14019.73
1138.8368 5666.2656 14023.175
1141.7838 5658.5752 14017.689
1146.05 5657.2202 14014.67
1149.4409 5652.7202 14011.841
1153.2664 5656.6528 13995.782
1157.2861 5654.4219 13995.558
1161.8098 5654.123 13995.855
1163.3514 5642.3438 13996.203
1170.0765 5653.1641 13996.128
1171.2717 5642.4468 13995.69
1177.66 5651.6201 13997.76
1190.51 5632.1001 13974.91
1209.29 5619.6802 13943.58
1223.3 5606.3501 13922.96
1227.5271 5602.8428 13920.635
1231.3341 5598.4712 13918.844
1234.387 5593.0146 13912.524
1240.33 5601.79 13913.45
1247.0601 5591.4023 13905.584
1251.0837 5589.8594 13903.998
1255.3573 5588.3281 13904.332
1258.8348 5585.9839 13900.074
1262.1899 5583.77 13895.58
1266.3101 5582.0601 13897.52
1270.79 5579.52 13888.29
1274.79 5579.7798 13891.06
1278.4 5578.29 13891.33
1286.14 5570.3701 13880.6
1291.6542 5577.7075 13879.755
1295.6488 5574.2749 13879.8
1297.9933 5570.5068 13881.708
1301.89 5567.9199 13883.46
1305.3011 5563.2773 13878.427
1309.4263 5561.7183 13878.389
1312.9537 5560.7314 13877.686
1318.5188 5569.1606 13874.809
1321.2191 5558.4688 13876.403
1324.8 5557.6401 13873.84
1329.0652 5556.8477 13877.042
1337.7792 5563.0059 13871.386
1341.7775 5558.2485 13871.639
1345.7 5555.5 13869.34
1348.9818 5553.0737 13872.662
1356.04 5549.3198 13875.78
-49.16 6014.6099 14568.16
-22.554178 5998.5918 14535.252
-18.540001 5998.1499 14533.8
-14.52 5998.8599 14533.52
-4.7399998 5992.1299 14523.1
-0.73194247 5998.3101 14511.813
3.3 5992.5498 14506.38
8.3291111 5991.2646 14504.778
11.933326 5985.8564 14506.876
18.084541 5985.0029 14505.426
21.68932 5991.0098 14498.797
25.568937 5990.2451 14497.188
30.352442 5989.9106 14494.353
34.869999 5987.3398 14492.04
40.063732 5986.3198 14484.101
43.400002 5975.5601 14485.3
47.495316 5977.1758 14489.521
51.990391 5975.9722 14486.786
57.135479 5976.6748 14486.167
61.305138 5982.668 14482.646
64.186897 5985.9014 14477.945
73.769997 5975.9302 14475.08
78.53389 5973.5786 14476.239
82.162804 5971.9805 14476.496
85.787079 5970.6729 14473.967
90.24585 5968.8267 14469.66
94.879997 5969.9502 14469.2
99.430916 5970.105 14469.354
106.91248 5970.2734 14470.589
111.49 5970.6001 14465.57
116.65 5970.75 14472.07
150.58 5953.3799 14416.17
155.02759 5951.9951 14413.244
159.77548 5952.6694 14412.955
164.25133 5953.3169 14414.363
168.16989 5951.3857 14410.426
172.7 5948 14406.57
177.17999 5945.3101 14404.27
181.66 5942.4102 14405.41
185.57001 5939.8799 14401.53
189.64999 5942.6802 14387.13
222.78 5868.7202 14209.12
226.66 5867.2002 14209.69
231.19031 5866.5747 14206.615
234.90909 5862.1772 14205.634
239.30814 5859.3545 14202.789
242.35068 5857.0005 14204.52
247.64078 5858.5977 14207.502
251.99353 5865.4658 14203.28
257.22522 5867.4346 14207.197
260.45782 5854.897 14205.978
264.51358 5857.6523 14212.998
268.01608 5857.8047 14211.171
272.51077 5859.6143 14215.269
277.68924 5861.3501 14214.399
281.69446 5861.646 14215.404
285.55817 5862.3545 14215.869
288.83676 5858.7007 14216.774
293.69 5855.0898 14206.86
298.55948 5861.6904 14204.206
306.39026 5858.4907 14203.471
310.22 5858.8901 14206.56
315.16016 5857.1714 14203.73
319.53 5854.02 14201.76
324.32602 5856.2095 14201.233
332.12723 5857.1152 14200.093
336.63 5857.6499 14203.23
340.92691 5856.6968 14202.136
345.39001 5853.3501 14199.81
348.96487 5853.7769 14201.261
353.67001 5850.5098 14205.75
359.29001 5859.6099 14203.48
363.16339 5858.1812 14202.351
371.10999 5859.27 14208.3
375.99734 5856.3994 14202.74
380.35995 5854.0103 14197.02
384.99002 5856.23 14202.593
388.34073 5855.582 14202.631
397.34 5854.9902 14206
402.08038 5850.2886 14201.202
406.1044 5847.9282 14200.811
414.26254 5849.8638 14200.018
419.08533 5851.0669 14203.761
423.52194 5848.7588 14199.695
427.38559 5848.7744 14202.719
431.1543 5846.9414 14200.097
434.99667 5846.3003 14200.115
440.11099 5845.3496 14200.278
444.2825 5849.0649 14205.4
447.38898 5846.394 14203.292
451.67151 5844.7666 14202.02
455.80234 5844.8154 14205.188
459.76846 5839.8418 14200.505
465.39001 5851.9199 14206.82
477.10999 5843.29 14201.76
481.37 5840.21 14202.89
488.70001 5840.2798 14202.61
494.42999 5847.9902 14199.23
497.91 5835.7998 14197.53
503.38297 5848.2393 14202.437
511.22 5846.2598 14204.33
515.44 5842.8701 14198.97
520.51532 5839.5029 14200.06
524.03802 5838.4917 14202.117
527.9411 5834.1729 14200.68
532.91736 5843.2632 14198.201
538.12 5843.8501 14204.33
542.47412 5842.5459 14203.064
546.15753 5839.3081 14197.695
550.23383 5840.085 14200.368
554.75 5840.4199 14201.75
590.211 5756.4897 14023.508
594.5025 5755.502 14026.903
602.10645 5752.1069 14021.667
607.09003 5762.8398 14021.79
610.42633 5752.2227 14022.808
614.58044 5750.5889 14022.02
620.07916 5763.9658 14025.722
623.13049 5761.1685 14023.448
627.25507 5759.9551 14023.85
631.46997 5755.7798 14018.75
635.77332 5755.4355 14023.578
639.70361 5753.4844 14024.255
642.75061 5752.0635 14026.343
647.55212 5749.0532 14020.79
651.82001 5748.0098 14022.63
655.68329 5748.2827 14020.986
663.61945 5748.04 14021.767
668.03998 5748.2798 14020.13
672.86896 5747.0054 14021.524
679.8891 5744.9873 14023.271
685.2226 5752.2319 14021.332
689.58472 5750.8252 14022.889
693.71997 5743.3701 14017.54
702.81 5753.7202 14026.04
707.15002 5752.6099 14024.66
711.6806 5748.4976 14017.889
716.20404 5748.9878 14020.726
720.05994 5748.1431 14020.788
723.69543 5746.1465 14019.893
728.03052 5745.9346 14021.222
733.35498 5745.2852 14022.446
736.81421 5743.7065 14021.869
740.0329 5738.1001 14020.727
743.71814 5736.4053 14020.3
749.62823 5743.5293 14019.949
753.75055 5740.2427 14020.225
757.87384 5737.7939 14019.867
761.78748 5737.7876 14021.285
765.49652 5736.0635 14019.897
770.29083 5734.3286 14018.819
774.70831 5733.7905 14018.917
778.79156 5734.9941 14021.442
781.72974 5732.3696 14019.097
786.21191 5731.1187 14019.411
790.42828 5730.1079 14019.546
794.83801 5735.0879 14015.118
802.51703 5732.481 14017.847
806.76166 5731.0962 14018.43
810.96838 5727.7256 14017.64
814.97998 5725.48 14016.71
822.25995 5725.5293 14021.24
827.04999 5723.75 14016.71
831.58514 5724.0972 14021.263
838.57104 5722.3633 14020.768
844.34619 5732.0166 14018.861
848.83002 5730.7998 14024.11
853.16046 5726.333 14019.042
857.26575 5724.2261 14021.884
859.76611 5721.2549 14022.214
865.72681 5727.7275 14020.765
869.88013 5725.1724 14020.107
873.89069 5721.9707 14019.571
877.61292 5720.7148 14018.124
881.3291 5719.0645 14016.97
886.23279 5718.144 14020.402
891.00671 5716.4517 14017.345
894.8479 5715.7251 14017.518
898.73102 5715.9673 14020.553
902.1817 5713.4121 14021.499
908.36084 5723.623 14020.879
912.58527 5720.0317 14020.029
916.77417 5713.9375 14017.302
918.5564 5709.4126 14017.424
925.19 5719.3398 14017.36
929.69305 5718.7749 14020.553
933.94421 5717.6963 14022.298
937.99518 5715.0581 14019.923
940.97693 5712.728 14018.92
946.26288 5714.0366 14020.098
950.27985 5710.6855 14019.103
954.7879 5711.4683 14020.337
957.82379 5707.0645 14019.31
961.09125 5706.8105 14020.302
966.08826 5703.4702 14021.032
972.04614 5712.6841 14021.959
975.21381 5708.2891 14020.063
978.04132 5706.1719 14020.797
982.60718 5703.7412 14021.421
986.17047 5700.1172 14017.713
990.65881 5700.0762 14020.757
994.18481 5697.9282 14016.399
997.52783 5697.6987 14017.838
1002.0075 5697.5654 14020.951
1006.3671 5696.709 14019.221
1010.6997 5695.8633 14019.111
1019.46 5703.77 14020.41
1023.2324 5700.5869 14019.219
1028.2911 5695.5801 14019.081
1031.9399 5694.7998 14021.52
1034.6912 5689.5278 14018.158
1044.9205 5697.8916 14019.301
1049.2593 5696.6465 14019.556
1053.469 5695.2607 14018.238
1056.9506 5692.7275 14015.455
1061.1356 5693.957 14017.947
1065.4279 5690.582 14015.838
1070.9573 5692.1396 14022.92
1073.8408 5687.0278 14016.556
1077.0752 5685.8364 14018.399
1081.1309 5683.1025 14019.201
1087.3199 5688.9502 14013.11
1091.1044 5684.9883 14017.143
1094.9413 5683.6416 14016.374
1098.1864 5680.4751 14014.064
1102.4846 5679.4375 14015.794
1106.4669 5677.0562 14013.033
1110.9204 5676.3569 14014.63
1115.9088 5678.917 14021.532
1119.4094 5676.6724 14018.884
1123.6715 5676.1138 14018.282
1128.1681 5674.8013 14020.501
1131.5746 5671.2969 14020.029
1140.36 5673.8599 14013.39
1146.9089 5661.4814 13994.753
1150.2789 5658.249 13995.976
1155.9728 5668.9556 13995.646
1160.2671 5666.0532 13995.103
1163.7152 5663.9473 13993.698
1166.3403 5654.9956 13995.298
1171.9556 5662.333 13990.539
1173.215 5652.0532 13993.072
1188.23 5640.1938 13958.503
1191.38 5636.2202 13956.63
1195.4502 5634.0869 13955.525
1206.61 5628.23 13932.15
1210.67 5626.0898 13931.04
1215.0769 5625.2871 13927.73
1219.5554 5621.064 13924.159
1222.49 5618.1401 13918.28
1226.23 5617.1699 13921.7
1233.0382 5607.7441 13914.514
1237.66 5605.02 13914.01
1242.1696 5607.7524 13899.988
1244.8046 5605.3315 13899.729
1249.1621 5600.1948 13896.625
1252.9896 5597.938 13894.052
1257.2239 5596.7495 13897.384
1260.8765 5595.4097 13895.992
1264.14 5592.3999 13888.69
1268.5935 5592.0869 13891.693
1273.0159 5589.2944 13884.154
1277.5601 5589.4102 13886.94
1280.5424 5587.5835 13885.754
1284.3033 5583.8271 13880.411
1288.7805 5581.8008 13880.548
1294.9846 5588.5542 13878.374
1297.6423 5584.9512 13877.316
1300.4929 5579.6924 13877.325
1303.762 5576.5195 13876.648
1308.4161 5574.4849 13876.755
1311.9951 5572.3296 13875.666
1315.3743 5570.3193 13874.687
1323.09 5567.0298 13868.62
