# .PCD v0.7 - Point Cloud Data file format
VERSION 0.7
FIELDS x y z
SIZE 4 4 4
TYPE F F F
COUNT 1 1 1
WIDTH 1431
HEIGHT 1
VIEWPOINT 0 0 0 1 0 0 0
POINTS 1431
DATA ascii
0.10857884 0.077372164 2.1337011
0.11075076 0.074812114 2.1338098
0.11289235 0.076388367 2.1329176
0.11509032 0.078192711 2.1328788
0.12831131 0.072406411 2.1352925
0.13048953 0.071268603 2.1356275
0.1325765 0.069565028 2.1363034
0.14802559 0.08136227 2.1359901
0.1500591 0.069619745 2.1373963
0.15224877 0.069248945 2.1370778
0.16501923 0.070577897 2.1741128
0.1654392 0.071753487 2.1351144
0.16759461 0.069739893 2.1358798
0.16974957 0.06880518 2.1371002
0.17193286 0.068736456 2.1369586
0.1861006 0.072055176 2.1732259
0.18517649 0.068737999 2.1373873
0.18735345 0.068713486 2.1374199
0.1895432 0.068612911 2.1376638
0.20219469 0.073516935 2.1780949
0.20277426 0.068580262 2.1386771
0.21751888 0.08365301 2.2770977
0.20487811 0.068420365 2.1378183
0.20706198 0.068414129 2.137764
0.22023344 0.074522518 2.180001
0.23027124 0.083156824 2.2540781
0.22029634 0.068496875 2.1388044
0.23371826 0.083614521 2.25406
0.22249097 0.068480112 2.138813
0.2360101 0.083924353 2.2540486
0.22468637 0.068464234 2.138808
0.23833494 0.075306945 2.1819451
0.24001092 0.074788056 2.1770115
0.23793194 0.068614461 2.1397369
0.25200245 0.085766338 2.2529557
0.2402411 0.068992183 2.1407695
0.25430715 0.085957654 2.2529435
0.24233687 0.068720236 2.1398735
0.25766674 0.08575809 2.2519457
0.25631812 0.075636551 2.1829164
0.25796282 0.07513921 2.1779647
0.25546312 0.068509437 2.1397984
0.25762933 0.068531469 2.1398714
0.25969863 0.068142831 2.138932
0.27616778 0.085984029 2.2519269
0.26299113 0.068124235 2.1389389
0.27962634 0.085744537 2.2519448
0.27927423 0.075097337 2.1789787
0.27490273 0.067633584 2.1380212
0.27817082 0.067604356 2.1380146
0.28035903 0.067629129 2.1379399
0.29801515 0.08397457 2.2520673
0.29392666 0.068281233 2.1407061
0.29611099 0.068283893 2.1407378
0.29816031 0.068033569 2.1397793
0.30923295 0.068140805 2.1407773
0.31141683 0.068077244 2.1407192
0.31361511 0.068038687 2.1407025
0.32675198 0.068142906 2.140986
0.32894179 0.067982621 2.1408947
0.33223367 0.067924671 2.1409032
0.33784661 0.068957455 2.1623759
0.34537452 0.067414589 2.1405742
0.3475669 0.067359217 2.1403801
0.3497723 0.067313798 2.1403542
0.35715058 0.067306846 2.1652141
0.35853991 0.066511072 2.1602342
0.36026111 0.066103868 2.1572218
0.36230898 0.066082373 2.1562455
0.36105955 0.067044646 2.1425078
0.36401281 0.065713413 2.1532011
0.36309972 0.067028865 2.1414776
0.36528355 0.066926472 2.141346
0.36839479 0.067027554 2.1401324
0.37059349 0.066997491 2.1401517
0.37663171 0.066350855 2.1622052
0.37940082 0.066058658 2.1592493
0.37862948 0.066495776 2.1422737
0.38310432 0.065601967 2.155256
0.38175705 0.066561617 2.1410904
0.38495201 0.065615177 2.1532815
0.38374859 0.066829577 2.1401057
0.38680714 0.065810561 2.1513808
0.38594568 0.066788837 2.1400967
0.38867155 0.065967463 2.1494393
0.38921762 0.066767722 2.1402643
0.39524338 0.06630709 2.1434929
0.39910418 0.066197142 2.1583416
0.39725995 0.06641797 2.1424992
0.39925575 0.066485278 2.1414394
0.40216526 0.066779919 2.1394746
0.40433121 0.066786528 2.1394327
0.40650162 0.066732183 2.1395457
0.41765234 0.066543855 2.1407192
0.41983804 0.066537097 2.1407337
0.42611533 0.07053148 2.1665649
0.4227052 0.066634327 2.1388071
0.42911711 0.068991721 2.1596193
0.4342452 0.06657777 2.1418734
0.43603674 0.066546671 2.1398678
0.46361491 0.081879936 2.2640831
0.43822679 0.06652268 2.139852
0.44149411 0.066559412 2.1399131
0.44809461 0.071839437 2.1655438
0.44835186 0.070951506 2.161608
0.45081273 0.070364214 2.1576807
0.47518879 0.083690278 2.249104
0.45284069 0.066430986 2.1419163
0.47725257 0.084002331 2.2480767
0.45485595 0.066279672 2.140887
0.4568153 0.066285826 2.1398849
0.48290801 0.085273415 2.2479358
0.46005699 0.066268347 2.1399584
0.46637636 0.065942898 2.1438787
0.47152629 0.07000982 2.1568999
0.46945709 0.065711401 2.1429684
0.47301537 0.069072612 2.1539876
0.47160909 0.065560371 2.1429696
0.47472829 0.068369918 2.1520872
0.47334117 0.065428525 2.1410623
0.47650254 0.066710159 2.1500614
0.47555944 0.065178372 2.1410177
0.47930461 0.064729445 2.1478643
0.50351799 0.086320363 2.247818
0.48116612 0.064501889 2.1470289
0.48337013 0.064116701 2.1471214
0.51518923 0.083044618 2.2472057
-0.47390935 0.074847661 2.1750989
-0.4886542 0.087751843 2.2569072
-0.4849917 0.087797023 2.2559152
-0.45961466 0.071634442 2.1506488
-0.47921816 0.088150606 2.2558968
-0.45328116 0.071401358 2.1468894
-0.45133048 0.072297834 2.1476798
-0.44826123 0.073206961 2.1484764
-0.46039084 0.083541125 2.2150931
-0.44365332 0.073278792 2.1475332
-0.45635328 0.083667956 2.2120736
-0.45040679 0.085964918 2.2560101
-0.44810644 0.085627876 2.2560248
-0.42392004 0.074150994 2.1474695
-0.44466585 0.084910333 2.2560723
-0.42171872 0.074266993 2.1475167
-0.44255781 0.084612451 2.2570662
-0.41605192 0.073685907 2.1466053
-0.44149387 0.085535638 2.2809408
-0.41384685 0.073743425 2.1466227
-0.44115576 0.085147955 2.2909234
-0.41032952 0.073154867 2.1458473
-0.40834677 0.073859394 2.1467109
-0.42008704 0.08337561 2.2121019
-0.4172557 0.083131388 2.2091138
-0.4019872 0.082477286 2.2061627
-0.389685 0.074052535 2.1467907
-0.38768691 0.074880876 2.1476574
-0.38438454 0.07512483 2.1476934
-0.38200468 0.074542984 2.1469784
-0.37980771 0.074604176 2.1469908
-0.38789898 0.081882559 2.2032053
-0.37650681 0.074854836 2.1470258
-0.38364452 0.081674218 2.1982055
-0.35328731 0.073779933 2.1460929
-0.36097151 0.081287228 2.2042916
-0.35000688 0.073785789 2.1460254
-0.34797025 0.074676581 2.1468098
-0.3457675 0.074771941 2.1468141
-0.34231526 0.074468002 2.1461446
-0.34293997 0.081094161 2.1973178
-0.33940753 0.081077076 2.1963162
-0.32756814 0.081140593 2.1922982
-0.3156769 0.073157057 2.1444709
-0.31348532 0.073387787 2.1445346
-0.31129724 0.073110603 2.1443412
-0.30799368 0.073218971 2.1443493
-0.31002063 0.081801549 2.195245
-0.29048884 0.072969794 2.1438096
-0.28830153 0.072980627 2.1437709
-0.28624997 0.073399313 2.1444943
-0.28294027 0.073355332 2.1444838
-0.28316796 0.082307898 2.1961918
-0.279208 0.08577992 2.2550056
-0.27562305 0.086064756 2.2540002
-0.25734687 0.072306231 2.1413558
-0.25502953 0.072036959 2.1404338
-0.25197712 0.072491094 2.1422958
-0.24979025 0.072480366 2.1422555
-0.26188314 0.0873487 2.2550018
-0.25417143 0.083149329 2.2081409
-0.25714105 0.087468132 2.2539778
-0.25033152 0.082527749 2.2041976
-0.25355798 0.087492555 2.2529695
-0.25136158 0.087715343 2.2539794
-0.24892601 0.087559178 2.2529562
-0.23216814 0.072235346 2.1413047
-0.22997589 0.072270565 2.1412594
-0.22667868 0.072314151 2.1411755
-0.22448424 0.072412618 2.1410482
-0.22229999 0.072431244 2.1410232
-0.22828855 0.081971787 2.2092695
-0.2317982 0.087774001 2.2549124
-0.22460411 0.08121857 2.2063444
-0.22216338 0.080670975 2.2043962
-0.21858361 0.080157518 2.202441
-0.22131959 0.086711966 2.2539647
-0.19907406 0.074431114 2.1384194
-0.19687892 0.074569896 2.138376
-0.19468248 0.0746755 2.1383688
-0.19138949 0.074777901 2.1383269
-0.19961618 0.084447376 2.2550821
-0.19741616 0.084215343 2.256093
-0.1957171 0.084281646 2.2631102
-0.19583932 0.081908323 2.2890584
-0.17383513 0.077511631 2.1378076
-0.17173438 0.076112382 2.1386456
-0.16953315 0.075651377 2.1387384
-0.14862733 0.080487892 2.1377714
-0.14641914 0.081884645 2.1380713
-0.14856692 0.070198834 2.1850646
-0.14422996 0.081772849 2.1380374
-0.14204159 0.081619591 2.1379917
-0.13985421 0.081344381 2.1379132
-0.12451794 0.081492856 2.1379342
-0.12232894 0.081404544 2.1378958
-0.12013736 0.081455082 2.1379082
-0.11685425 0.081351712 2.1378465
-0.11456273 0.083155751 2.1378174
-0.1122687 0.084449328 2.1381149
-0.10852248 0.069293462 2.1879299
-0.10264851 0.080066323 2.1373219
-0.099264756 0.082015 2.1371777
-0.097078174 0.081884034 2.1371198
-0.094906859 0.081028238 2.136806
-0.092710651 0.081384562 2.1369102
-0.090525039 0.081230953 2.1368482
-0.082561657 0.07033819 2.1868939
-0.075216733 0.080765381 2.136575
-0.07303828 0.080366448 2.1364386
-0.070867151 0.079606339 2.1362493
-0.067472011 0.082172491 2.1362929
-0.065312408 0.081204347 2.1358745
-0.054550048 0.070675507 2.1851954
-0.051150218 0.077964216 2.1353428
-0.047970276 0.073592238 2.1361294
-0.045716207 0.075880535 2.1353679
-0.043521762 0.075876497 2.1353409
-0.028206561 0.075414829 2.1351779
-0.02590039 0.081210434 2.1349137
-0.023723599 0.08065594 2.1347868
-0.021462429 0.08376392 2.134577
-0.021458579 0.084061615 2.2531683
-0.018329205 0.075103529 2.1346147
-0.016540162 0.07405515 2.1891496
-0.0063498225 0.07003586 2.1367581
-0.0041560507 0.070620075 2.1358662
-0.0019745957 0.070780709 2.1357293
0.00024175219 0.071932323 2.1345623
0.001447501 0.078051068 2.2047346
0.0035490631 0.072647512 2.1335824
0.0057458365 0.07256078 2.1335995
0.017794188 0.070824325 2.1355324
0.019984916 0.072003365 2.1344376
0.022173289 0.071976982 2.134439
0.033616923 0.085927486 2.2369225
0.033928812 0.074823365 2.187067
0.035340715 0.069401376 2.137027
0.037247743 0.074229911 2.1841209
0.037526455 0.069406688 2.1369865
0.039708618 0.069462635 2.1367304
0.041883197 0.070376195 2.1356246
0.045174241 0.07050696 2.1355305
0.049878605 0.083736636 2.2531009
0.0521334 0.083208859 2.253134
0.057180874 0.069817476 2.1366262
0.059355646 0.069831558 2.1362789
0.061534084 0.070339851 2.1350689
0.064829558 0.070769019 2.1348224
0.067006692 0.070532195 2.1349497
0.071716443 0.073765144 2.1781254
0.079076096 0.070146903 2.1358688
0.081257828 0.070184261 2.1358252
0.084525779 0.070085779 2.1359499
0.086704485 0.070027404 2.1360281
0.098763034 0.071074598 2.135242
0.10098286 0.070497587 2.1358721
0.10313884 0.072848104 2.1346493
0.10640161 0.07292603 2.1346288
0.11508406 0.071989693 2.1770113
0.12055998 0.07370542 2.1339281
0.12275334 0.075006843 2.1337533
0.12608534 0.075026557 2.1343799
0.13728325 0.070818067 2.1758652
0.14020863 0.07302919 2.1341169
0.14250815 0.083694786 2.1346743
0.14576925 0.084065981 2.1362071
0.15561588 0.069174573 2.1371832
0.15781693 0.06921009 2.1370516
0.16001058 0.069310009 2.1368818
0.16332237 0.07097359 2.1358893
0.16674861 0.068623021 2.1681647
0.17740482 0.068662353 2.1369815
0.17959465 0.068637952 2.1369166
0.18289131 0.068927549 2.1364443
0.18667065 0.071072802 2.1674066
0.19499154 0.068559408 2.1380379
0.19719905 0.06851466 2.1380167
0.20252337 0.072489336 2.1703324
0.20056288 0.068604872 2.1388385
0.21822758 0.081691012 2.259094
0.22004952 0.081272766 2.2542539
0.22234797 0.081547409 2.2542398
0.21262687 0.068518452 2.1388412
0.21480525 0.068622455 2.1390202
0.21796857 0.06830366 2.1380835
0.22364564 0.073594309 2.1702287
0.24168462 0.084540315 2.2530885
0.23015225 0.068365343 2.1388314
0.24397072 0.084873915 2.2530613
0.23245713 0.068557985 2.1398094
0.2461638 0.084883884 2.252054
0.2357489 0.068605013 2.1398525
0.249716 0.085585281 2.2530239
0.24167122 0.074456997 2.1721778
0.24342877 0.074113704 2.1681933
0.24768129 0.068279505 2.138983
0.2498875 0.068280473 2.1390355
0.26563054 0.085704327 2.2510166
0.25315925 0.068292625 2.1390865
0.26793665 0.085752152 2.251013
0.2608135 0.074838057 2.1741462
0.27152118 0.086047426 2.2519979
0.26267493 0.074527606 2.1711864
0.26543456 0.06864205 2.1408639
0.26872712 0.068597749 2.1408556
0.27079681 0.068353713 2.1399219
0.27284589 0.068049036 2.1390519
0.2808359 0.074681446 2.1741629
0.28227377 0.073878102 2.1682546
0.28612465 0.068180926 2.1399484
0.28814903 0.067926913 2.1390295
0.29048121 0.068185128 2.1399941
0.31019586 0.083762757 2.266084
0.29843134 0.068430208 2.1417997
0.30229789 0.069037519 2.1533937
0.30169779 0.068435885 2.1418424
0.30374983 0.068196617 2.1408613
0.30705377 0.068190962 2.1409013
0.31657588 0.071298778 2.1605499
0.31816852 0.069363609 2.1564763
0.31991339 0.068351112 2.1534665
0.31923559 0.068240479 2.1419094
0.32197648 0.068293937 2.1524925
0.32236323 0.068072058 2.1410277
0.32470942 0.068185091 2.1419597
0.32669204 0.06829039 2.1476672
0.32890528 0.068175308 2.1476729
0.33080134 0.067904927 2.1456661
0.33284393 0.067731313 2.1446428
0.33471888 0.067803293 2.1427836
0.33942008 0.067701258 2.1584556
0.33785751 0.067568585 2.1417069
0.34114155 0.067394428 2.1554911
0.34003049 0.067565195 2.1417365
0.34287843 0.067587748 2.1526139
0.34207028 0.067494094 2.1407938
0.34476453 0.067103438 2.1505616
0.34663981 0.066786334 2.1484911
0.34852394 0.066886 2.1465111
0.35165948 0.06703762 2.145607
0.35353509 0.067162476 2.1436379
0.35572729 0.067200147 2.1436882
0.35776898 0.067166902 2.1426659
0.36584911 0.065879896 2.1513951
0.36752781 0.06584502 2.1483557
0.36922383 0.066158906 2.1453774
0.37235028 0.066313416 2.1444395
0.37439549 0.066327453 2.1433415
0.37642261 0.066516586 2.1423757
0.39321476 0.066335 2.1446691
0.40160084 0.066039257 2.1486559
0.40322974 0.066022664 2.1456156
0.41028765 0.066659644 2.1595216
0.40813324 0.066319607 2.1426413
0.41153538 0.066392645 2.1546414
0.4101426 0.066402055 2.1416197
0.41316697 0.066305198 2.1517262
0.41342506 0.066467702 2.1417546
0.41542968 0.066533789 2.140816
0.4236775 0.066507667 2.143899
0.42676535 0.066650547 2.1430209
0.43088186 0.068636522 2.1577764
0.42894408 0.066740021 2.1430678
0.43094337 0.0665996 2.1420281
0.46383077 0.084131591 2.2932508
0.43536341 0.066688806 2.152746
0.4371506 0.066437222 2.1507676
0.43872938 0.066473 2.1478548
0.46310598 0.080608346 2.2551844
0.44052157 0.066468768 2.1459184
0.44251153 0.066459 2.1449447
0.46611911 0.080890521 2.2483983
0.44536182 0.066503614 2.1429794
0.46923235 0.081767254 2.247395
0.44734484 0.066478468 2.1420112
0.47170588 0.082540505 2.2483389
0.44955239 0.066437423 2.14203
0.4541024 0.068935759 2.1529336
0.45585382 0.067523353 2.1508811
0.45760792 0.066230103 2.1488035
0.45936564 0.066187777 2.1468821
0.46133161 0.066142567 2.1459272
0.46436399 0.066083625 2.144994
0.48866013 0.086374126 2.2479408
0.49189898 0.086339109 2.2469373
0.50596905 0.086083703 2.2479734
0.50948703 0.085554063 2.2480373
0.51291555 0.083940312 2.247237
-0.49454984 0.087224573 2.2570064
-0.4815056 0.077898666 2.2038064
-0.49222687 0.087374218 2.2569985
-0.4657447 0.072605029 2.1584849
-0.45651305 0.070645511 2.1472223
-0.46540409 0.088027708 2.2559698
-0.45237458 0.08320339 2.2092035
-0.44949085 0.083099157 2.2062039
-0.43464765 0.073482603 2.1468461
-0.44567728 0.08316724 2.204196
-0.43114677 0.07304807 2.1459339
-0.44188157 0.083038658 2.2022035
-0.42917937 0.073651195 2.1468182
-0.4271861 0.07419847 2.1476297
-0.41798756 0.073259257 2.1459811
-0.44099623 0.084744655 2.27192
-0.44091615 0.083458491 2.2999349
-0.41330156 0.082702823 2.2062471
-0.39934427 0.07340005 2.1461852
-0.40953952 0.082484402 2.2042563
-0.3973476 0.074194476 2.147022
-0.40727448 0.082495004 2.2042563
-0.395156 0.074223407 2.1470182
-0.40388107 0.082379542 2.204267
-0.39186135 0.074336991 2.1470623
-0.37101007 0.075937063 2.1473367
-0.37792873 0.080949463 2.1913927
-0.36882967 0.075584896 2.1472979
-0.36535987 0.074753471 2.1466475
-0.36316621 0.07471361 2.1466374
-0.36096883 0.074924193 2.1466682
-0.3575103 0.073478512 2.1458871
-0.3553088 0.073490374 2.1458499
-0.35482267 0.081043631 2.1944249
-0.34664169 0.080808274 2.1924844
-0.34471452 0.080945209 2.1944733
-0.33448979 0.074291527 2.1457255
-0.33103168 0.074174412 2.1452608
-0.32886645 0.07311216 2.1448133
-0.32668307 0.072963983 2.1446395
-0.32462969 0.073683903 2.1452169
-0.32117981 0.073338524 2.1447322
-0.31898516 0.073349416 2.1446836
-0.32288271 0.080380119 2.1835294
-0.306095 0.07568863 2.1460311
-0.30391288 0.075284958 2.1459622
-0.30173293 0.075230688 2.1459358
-0.30609623 0.081599168 2.1913898
-0.2984435 0.074758217 2.1458359
-0.29612094 0.074041791 2.1449893
-0.29282659 0.073861048 2.1449294
-0.29110354 0.086207226 2.2760563
-0.27282697 0.072480187 2.1428883
-0.28572902 0.085647352 2.2610037
-0.26965457 0.072991818 2.1437604
-0.26745251 0.073007867 2.1437714
-0.27329534 0.082597725 2.1983027
-0.26513243 0.072542235 2.142803
-0.26173285 0.072157599 2.1417866
-0.25953686 0.072256453 2.1416323
-0.26996714 0.086727656 2.2550042
-0.26765704 0.086928524 2.2550027
-0.26534727 0.087102897 2.2549996
-0.2444444 0.072540179 2.1433296
-0.24224508 0.072503835 2.1433353
-0.24763897 0.081775643 2.2003977
-0.23996048 0.072394378 2.1423409
-0.24382046 0.080991603 2.1964769
-0.23655292 0.072316676 2.1413734
-0.23436227 0.072260894 2.1414564
-0.23981163 0.087730877 2.2539799
-0.23750214 0.087719135 2.2539797
-0.23529188 0.087891825 2.2549727
-0.21463691 0.072539553 2.1408453
-0.21133557 0.072493322 2.140888
-0.21606661 0.079366051 2.1996384
-0.20904627 0.073158376 2.1397448
-0.20685911 0.073280156 2.1396742
-0.20466627 0.073218897 2.1396887
-0.21332972 0.086019412 2.2540593
-0.20138402 0.073253833 2.1396544
-0.20989276 0.085761227 2.2540598
-0.20761453 0.08545357 2.2540708
-0.20541342 0.0852625 2.2550941
-0.18600538 0.07399603 2.1392679
-0.18381071 0.074084036 2.1392257
-0.18161599 0.074250333 2.1391609
-0.17932382 0.075650565 2.1381145
-0.17722309 0.074669868 2.1390083
-0.16414733 0.074096106 2.1395841
-0.16196144 0.074370012 2.1394556
-0.15976468 0.074784078 2.1393042
-0.15639558 0.078169189 2.138288
-0.15420377 0.078551702 2.1382515
-0.15201791 0.077990338 2.1382592
-0.14608128 0.068930008 2.181082
-0.13667572 0.078493066 2.1380818
-0.13447867 0.079667099 2.138083
-0.13219009 0.082236573 2.1378276
-0.12889822 0.082645692 2.1379609
-0.12671039 0.082481191 2.1378934
-0.12269242 0.06690643 2.1809256
-0.10910086 0.08373528 2.1375136
-0.10702419 0.081341811 2.1373813
-0.10483899 0.081249207 2.1373246
-0.10484002 0.066303246 2.1797898
-0.084954567 0.084268555 2.1367204
-0.082663648 0.086398542 2.1367939
-0.079373032 0.08619494 2.1367857
-0.080141991 0.068949699 2.1810033
-0.077294312 0.084024854 2.136718
-0.059860595 0.081493229 2.1356246
-0.057676312 0.081344955 2.1355765
-0.055398669 0.083787493 2.1353776
-0.053330053 0.07980293 2.1353176
-0.052254055 0.070309006 2.1814291
-0.048845444 0.069631375 2.1784956
-0.040228862 0.077834554 2.1351402
-0.037953705 0.081288502 2.1347253
-0.035764657 0.081320927 2.134726
-0.033699192 0.074853219 2.135267
-0.031508539 0.075134106 2.1352019
-0.029391943 0.082722664 2.2552152
-0.016182313 0.071874566 2.1353455
-0.013993624 0.071490146 2.1354997
-0.011839242 0.070187315 2.1367195
-0.0085398853 0.070105337 2.1366932
-0.0053906851 0.087158553 2.2519996
-0.00077022065 0.086504556 2.2400343
0.0013909291 0.073100813 2.184386
0.011227265 0.071617693 2.1346629
0.013409759 0.070692301 2.1356874
0.01560754 0.070577405 2.1357253
0.027647439 0.069436923 2.1373334
0.029843161 0.069450237 2.1374068
0.031640127 0.073860697 2.1833124
0.033154152 0.069381826 2.1372988
0.037244167 0.086074628 2.2520511
0.039597679 0.086058863 2.2550271
0.039356388 0.072962441 2.1783974
0.04187518 0.085567743 2.2550445
0.047372617 0.069985978 2.1359575
0.049555 0.06979645 2.1361973
0.051738035 0.069744349 2.1363275
0.055005174 0.069957301 2.1370146
0.059263844 0.081882678 2.2707851
0.069217242 0.070296429 2.1357212
0.071408547 0.07013128 2.135865
0.073757552 0.072526395 2.173353
0.074702814 0.070118874 2.1359179
0.07691659 0.071662016 2.1684468
0.076884434 0.070311107 2.135741
0.088886961 0.070441075 2.1356397
0.091070756 0.070489146 2.1355882
0.09489511 0.072722271 2.1733375
0.094378956 0.070578933 2.1355488
0.096567124 0.070928462 2.1353192
0.11399873 0.073208734 2.1340365
0.11694161 0.069785886 2.1710896
0.11612009 0.073760383 2.1332111
0.11833456 0.071097016 2.1346538
0.12827846 0.071697757 2.1354256
0.13038331 0.070064098 2.1358523
0.13255361 0.069553666 2.1365077
0.13586509 0.070498645 2.1355803
0.13906673 0.068556517 2.1700184
0.13797976 0.071085162 2.1346869
0.14802614 0.083854519 2.1362472
0.15011318 0.070843011 2.1386614
0.15340959 0.069717899 2.1382325
0.16832538 0.067786977 2.1604481
0.16756356 0.069772907 2.1359704
0.169607 0.069075882 2.1375294
0.17288882 0.068596795 2.1372581
0.17510487 0.068419121 2.137187
0.18739934 0.068594433 2.1386764
0.19070065 0.068666674 2.138932
0.19278635 0.068696864 2.1383612
0.20426485 0.071801722 2.1655231
0.20275143 0.0685912 2.1389763
0.20495629 0.06867002 2.139106
0.20704021 0.068448722 2.1381097
0.21042489 0.068569258 2.1390336
0.23037811 0.083190024 2.2541783
0.23383215 0.083649918 2.2541635
0.22247469 0.068556622 2.1391222
0.23609705 0.084112242 2.2541635
0.2246761 0.068570092 2.1391735
0.23827773 0.084168181 2.2531452
0.22795253 0.068471439 2.139087
0.23596834 0.06874758 2.1418085
0.23802108 0.069077872 2.1410668
0.24021833 0.069089912 2.1410866
0.24518557 0.073641181 2.1643865
0.24351707 0.069184631 2.141161
0.24693207 0.073055841 2.1604395
0.24560842 0.068770587 2.1401877
0.25987044 0.085568972 2.2510858
0.26331618 0.085684761 2.2510836
0.25761303 0.068623208 2.1401877
0.27380559 0.08602719 2.2520545
0.26089382 0.068622135 2.140204
0.26309112 0.068456717 2.1400957
0.26783007 0.072884366 2.1594665
0.28185281 0.085641183 2.2520776
0.27116302 0.068880826 2.142849
0.27827516 0.068075575 2.139255
0.28047493 0.068056084 2.1392605
0.28563911 0.072861195 2.1605351
0.28391609 0.068217449 2.1400712
0.30144975 0.083153218 2.2532098
0.29294389 0.072202064 2.1576278
0.29197738 0.068761617 2.1429341
0.29502162 0.071915314 2.1566477
0.29403639 0.068490006 2.1419501
0.29707918 0.071130693 2.1556349
0.29636115 0.068731882 2.1429613
0.29910877 0.069616504 2.1545148
0.3040629 0.068828426 2.1505916
0.30596808 0.068745703 2.1486704
0.30787733 0.068564296 2.1467366
0.30977425 0.068240352 2.1447277
0.31167305 0.06828776 2.1428752
0.31485233 0.068285756 2.142025
0.3170217 0.068311818 2.1420677
0.32353956 0.068382889 2.1487665
0.40593183 0.066261455 2.1426871
0.41495401 0.066318005 2.1498942
0.41656542 0.06626945 2.1469092
0.41948169 0.066341877 2.1449561
0.42166123 0.066445522 2.1449995
0.46425334 0.08473108 2.3003364
0.46430913 0.084847718 2.2841866
0.46369436 0.081822939 2.2631397
0.46445978 0.080640286 2.2501991
0.48082507 0.084931254 2.2482085
0.48289764 0.085059226 2.2471955
0.48650792 0.086120687 2.2480912
0.50142044 0.086667001 2.2480357
0.50374663 0.086471617 2.2480588
-0.47903997 0.076206632 2.1881726
-0.47429448 0.075313218 2.1773288
-0.47719145 0.07902623 2.1998255
-0.47323775 0.079824083 2.1967158
-0.47930777 0.088170215 2.2560143
-0.47699228 0.088252574 2.2560103
-0.44993734 0.072125949 2.1472204
-0.44820756 0.073366687 2.1488211
-0.44577819 0.073247999 2.1479361
-0.46774617 0.088187784 2.2560115
-0.44252357 0.073546559 2.1478717
-0.44008756 0.073274679 2.1470594
-0.43681931 0.073463723 2.1470883
-0.43789732 0.082716107 2.1993299
-0.44839612 0.085713319 2.2571254
-0.43392286 0.082362428 2.1963608
-0.44493136 0.085086264 2.2571433
-0.4310813 0.08204101 2.1934006
-0.44283772 0.084561378 2.2581847
-0.44205156 0.085841268 2.2828686
-0.41251281 0.073442839 2.1462047
-0.4103007 0.073483504 2.1462414
-0.40721232 0.074204847 2.14712
-0.40481201 0.073598407 2.1463804
-0.4026252 0.073519841 2.1462922
-0.39004204 0.07564424 2.1488833
-0.387849 0.076041095 2.1489384
-0.38436565 0.075638555 2.1481574
-0.38216916 0.075839251 2.1481867
-0.37868896 0.075204171 2.1474414
-0.37648952 0.075530268 2.1475067
-0.37320018 0.075838238 2.1475296
-0.34998918 0.074190557 2.1464474
-0.3477931 0.074752256 2.1466007
-0.34450141 0.074886888 2.146589
-0.35065666 0.080572091 2.1896288
-0.34230477 0.074976265 2.146585
-0.34824926 0.080414325 2.188638
-0.33994088 0.074150942 2.1458874
-0.33649772 0.074297838 2.1455054
-0.31912911 0.074682824 2.1456022
-0.31582293 0.074926458 2.1456017
-0.31363797 0.074657544 2.1455309
-0.31144008 0.074641019 2.1455023
-0.30828565 0.075717144 2.1462517
-0.28720373 0.073252559 2.1441586
-0.28502664 0.073056668 2.1439068
-0.28282627 0.073049761 2.1439052
-0.28063735 0.073040262 2.1438992
-0.27723262 0.07255321 2.1431112
-0.27503493 0.072561748 2.1430924
-0.2816208 0.085632131 2.2560253
-0.27905846 0.085655965 2.2540305
-0.26919091 0.081841558 2.1925015
-0.2756125 0.086071096 2.2540407
-0.26646903 0.081140257 2.188566
-0.25406075 0.072299063 2.1416786
-0.25187546 0.072313376 2.1416442
-0.24980576 0.072496973 2.1425521
-0.24651662 0.072462343 2.1425769
-0.25610572 0.087669484 2.2550066
-0.25368619 0.087637544 2.2540092
-0.25137609 0.087719761 2.2540083
-0.24125057 0.080437876 2.1936736
-0.24560994 0.087747887 2.2540128
-0.23735097 0.079533637 2.1887622
-0.24329905 0.087772124 2.2540123
-0.2268192 0.072218329 2.1424491
-0.22449739 0.072310813 2.1413958
-0.22121283 0.072330467 2.1412761
-0.21889852 0.072725512 2.1401572
-0.21672824 0.072832868 2.1400392
-0.22610484 0.087444693 2.2550478
-0.22381614 0.087115578 2.2550538
-0.22142269 0.086804621 2.2540605
-0.21797106 0.086496986 2.2540765
-0.21568635 0.086245425 2.2540958
-0.20389077 0.076378427 2.1900628
-0.20016304 0.075258225 2.186166
-0.19361012 0.074493594 2.1384912
-0.19141141 0.074666522 2.1384325
-0.18921492 0.074987479 2.1383274
-0.1976613 0.084306143 2.2571909
-0.19489525 0.084190503 2.2651865
-0.19665715 0.078774162 2.2940919
-0.17165618 0.077782847 2.1376965
-0.16954288 0.075778648 2.1386533
-0.16634217 0.074390337 2.1394696
-0.14874126 0.079078883 2.1380885
-0.14655443 0.078748517 2.1380789
-0.14424029 0.083296977 2.1378391
-0.14216202 0.079723254 2.1380236
-0.14233917 0.066516571 2.1747139
-0.13886487 0.080453798 2.1380308
-0.13975133 0.064630203 2.1683145
-0.12124102 0.083185352 2.1377313
-0.11904802 0.083353102 2.1377778
-0.12007774 0.063916713 2.1724482
-0.11685672 0.083420426 2.1377947
-0.11456137 0.085398331 2.1378474
-0.11249002 0.082854316 2.1375523
-0.10239294 0.063621067 2.1733541
-0.094921321 0.082510106 2.1365964
-0.092717893 0.08326558 2.1367934
-0.089432068 0.08336433 2.1368148
-0.087251686 0.083038487 2.1366899
-0.076625176 0.066969015 2.1749468
-0.07304135 0.082444534 2.1363986
-0.069911465 0.077108011 2.1362479
-0.067616798 0.080364652 2.1359193
-0.065296918 0.083961017 2.1360881
-0.062037732 0.083099723 2.1357629
-0.050184403 0.074696347 2.1358833
-0.047997262 0.074053518 2.1359649
-0.045812778 0.073518708 2.1360371
-0.043548997 0.076358318 2.1351736
-0.03100187 0.069837227 2.1757634
-0.026043877 0.075697027 2.1350083
-0.023753732 0.081168212 2.1344922
-0.021543939 0.082467988 2.13468
-0.018312553 0.077574007 2.1336663
-0.016838687 0.085560054 2.2541292
-0.013398242 0.085961133 2.2531598
-0.010931198 0.071464039 2.179682
-0.0087169437 0.070483781 2.1757874
-0.0042022206 0.069777966 2.1371088
-0.0030512426 0.087170623 2.2490966
-0.0020019263 0.0704429 2.136044
0.0013173665 0.071749553 2.134701
0.003535257 0.072355568 2.1337726
0.0057253665 0.072046809 2.1338608
0.0079173688 0.072085716 2.1338401
0.017773584 0.07055489 2.1357355
0.019961612 0.070658788 2.1356556
0.023274226 0.070625111 2.1356437
0.025467297 0.069375016 2.1372509
0.033637702 0.085836552 2.2413275
0.033181466 0.068690956 2.1396046
0.035357811 0.068492331 2.1394796
0.037547354 0.068390071 2.1394236
0.039733246 0.068100162 2.1391845
0.041497331 0.072032176 2.1736345
0.043020293 0.068482593 2.1378481
0.045192003 0.069331326 2.1367843
0.049781293 0.083930209 2.2541211
0.053180795 0.083228767 2.2540891
0.055479486 0.082845882 2.2550211
0.057191398 0.06976299 2.1379211
0.059364188 0.069808587 2.1369083
0.062659599 0.069789506 2.1364009
0.064842865 0.0700102 2.1360273
0.066992596 0.070437945 2.1351354
0.078916736 0.070048206 2.1626408
0.079099044 0.069453329 2.1370566
0.081249863 0.070093982 2.1359603
0.084520385 0.069993854 2.136132
0.086699389 0.069909982 2.136312
0.096766107 0.07009846 2.1664512
0.098767921 0.067549072 2.1613042
0.10093083 0.071995787 2.1348634
0.10421583 0.071969144 2.1348681
0.10637563 0.07764671 2.1334784
0.10856247 0.078259513 2.1334631
0.11072993 0.07522171 2.1336756
0.11883362 0.068284817 2.1652586
0.1206769 0.065853193 2.1591339
0.12054218 0.073423728 2.1339679
0.12385582 0.073197223 2.1345882
0.12605326 0.074066319 2.1344173
0.14085816 0.066485807 2.1641567
0.14016619 0.071913786 2.134428
0.14388727 0.066941611 2.1594532
0.14358416 0.087026194 2.136548
0.1457722 0.086976998 2.1366479
0.15786427 0.068686411 2.1383786
0.16114663 0.068659008 2.1377151
0.16328728 0.070319541 2.1361585
0.16545342 0.069886014 2.1364193
0.17005989 0.067935959 2.1547284
0.18067187 0.068683833 2.1370161
0.18285875 0.068871744 2.1367283
0.18513168 0.068668656 2.1378071
0.19120106 0.068164803 2.1566658
0.19322453 0.06798432 2.1546667
0.19305828 0.069307752 2.1412551
0.19505341 0.068851925 2.1393209
0.1983474 0.068669513 2.1392088
0.20054747 0.068639666 2.1391802
0.21876714 0.084083825 2.2762356
0.21835695 0.081723213 2.2591407
0.20854259 0.068397842 2.1418736
0.21110748 0.06941732 2.1566327
0.21052419 0.068672717 2.1400917
0.21301533 0.068441734 2.1535974
0.21281762 0.068549782 2.1409392
0.22587281 0.082376555 2.2542787
0.21467671 0.068392508 2.1383431
0.2281462 0.082824953 2.2542543
0.21795061 0.068361163 2.1383843
0.2202626 0.068614364 2.1393087
0.22890313 0.071792856 2.1576648
0.22816829 0.068873011 2.1411231
0.23077483 0.069393836 2.1545241
0.23035979 0.068731844 2.1410439
0.23275374 0.068589777 2.1525004
0.23374332 0.06880483 2.141974
0.24735263 0.085083961 2.2521584
0.24975079 0.085622318 2.2531428
0.23980556 0.069254711 2.1467988
0.241899 0.069103628 2.1458075
0.24385689 0.069251269 2.1439793
0.24583912 0.069197766 2.1421554
0.24857356 0.071702614 2.1556218
0.24778575 0.068667032 2.1402669
0.25041884 0.068992242 2.1524653
0.25108188 0.068669178 2.140264
0.26572376 0.086018935 2.2520876
0.25326309 0.068666615 2.1402817
0.25540549 0.068765901 2.1403792
0.25747547 0.069239408 2.1477034
0.27147624 0.086079948 2.2521076
0.25956315 0.069330804 2.1467941
0.26151562 0.069107905 2.144866
0.26359648 0.069198504 2.1439931
0.26674628 0.068985671 2.1430044
0.2696422 0.072141245 2.1566584
0.26908949 0.069076359 2.1439605
0.27160034 0.071599402 2.1546912
0.27338064 0.069086075 2.1515388
0.27296314 0.068410829 2.1402535
0.27520633 0.069006309 2.148654
0.28998923 0.085056484 2.2531464
0.27607781 0.068185575 2.1394916
0.29343131 0.08473856 2.2531881
0.28222662 0.068951786 2.1439898
0.28430921 0.068796076 2.1430523
0.28743219 0.072373591 2.1577547
0.28636754 0.068660557 2.1421299
0.28935421 0.071658209 2.1557679
0.28852719 0.068559453 2.1420653
0.30509475 0.082866214 2.2552452
0.31046408 0.084257841 2.2691808
0.46487224 0.085987397 2.2922814
0.47191954 0.082658134 2.248461
0.47525722 0.083588094 2.2484109
0.47729453 0.083963081 2.2473788
0.49212256 0.086514845 2.2471848
0.495711 0.087322615 2.2480836
0.49804258 0.086951569 2.2481215
0.51318657 0.084115893 2.2475054
0.51560426 0.083295494 2.2476115
-0.49491492 0.087610684 2.2581165
-0.49119681 0.087533861 2.257098
-0.48887554 0.087823458 2.2570732
-0.46460617 0.073164597 2.158716
-0.4851667 0.08782471 2.2560928
-0.45924065 0.071370445 2.1503167
-0.45562088 0.071579419 2.1484487
-0.45339647 0.072056971 2.1483798
-0.45880505 0.08064644 2.1867137
-0.45969841 0.087467305 2.256084
-0.45625576 0.086997569 2.2561042
-0.45281512 0.086467415 2.2561326
-0.42912206 0.073950097 2.1472158
-0.45053133 0.086025387 2.2561774
-0.4260602 0.074368082 2.1479776
-0.42405954 0.074909709 2.1489072
-0.42145288 0.074091703 2.1471975
-0.41816023 0.074186176 2.1472466
-0.41578829 0.073528886 2.146332
-0.42296064 0.081173137 2.1866121
-0.41921398 0.080736347 2.1846459
-0.39731276 0.074603587 2.14745
-0.39402756 0.074625701 2.1474471
-0.3920365 0.075177386 2.1482315
-0.37319377 0.080007695 2.1836989
-0.3631475 0.075442411 2.1470914
-0.36692801 0.079790756 2.1798263
-0.35985783 0.075902477 2.1471503
-0.364701 0.079845861 2.1798322
-0.35766989 0.075203992 2.147006
-0.35546565 0.075176559 2.1469781
-0.35217899 0.074512765 2.146744
-0.3312079 0.074866958 2.1460702
-0.32902747 0.074037805 2.145685
-0.32699507 0.074819893 2.1464648
-0.32353264 0.074764468 2.145834
-0.32148209 0.075075686 2.146472
-0.31836402 0.079460554 2.1758962
-0.31428879 0.078679368 2.1709638
-0.30843422 0.076852158 2.1472557
-0.30623227 0.077054024 2.1472456
-0.30406153 0.076329254 2.1471844
-0.30091983 0.075936571 2.1479368
-0.29858238 0.075595796 2.1470759
-0.29625413 0.074981362 2.1462185
-0.2928336 0.074184529 2.1453264
-0.29050228 0.073407799 2.1443856
-0.26966572 0.073151782 2.1441135
-0.2674652 0.073147267 2.1441245
-0.26514968 0.072686501 2.143151
-0.26173335 0.072267853 2.1421163
-0.25953919 0.0723323 2.1419513
-0.26263008 0.080477469 2.1847792
-0.25626782 0.07231617 2.1418459
-0.25880849 0.079701081 2.1808579
-0.26546434 0.087271914 2.2559988
-0.26199508 0.087509707 2.2559972
-0.25956833 0.087495014 2.2549973
-0.24225959 0.072504863 2.1436276
-0.2388757 0.072360255 2.142628
-0.23668525 0.072328374 2.1426804
-0.23449118 0.072323665 2.1426923
-0.23109154 0.072233625 2.1417632
-0.22889647 0.072251827 2.1417158
-0.23765115 0.08790262 2.2550573
-0.23419939 0.087876245 2.2550542
-0.23198244 0.087964676 2.2560434
-0.22968309 0.087915905 2.2560585
-0.21124871 0.072954819 2.140013
-0.20905434 0.072888739 2.1400411
-0.20687656 0.073065564 2.1398907
-0.20360357 0.073021226 2.139904
-0.20141372 0.07313884 2.139806
-0.19909866 0.074162759 2.1386502
-0.20785171 0.085557505 2.2551503
-0.19581386 0.074577712 2.1384921
-0.19765852 0.074376248 2.1833761
-0.19387445 0.073093541 2.1784792
-0.18382576 0.073957443 2.139302
-0.18162139 0.074162945 2.1392095
-0.17833872 0.074288599 2.1391582
-0.17614962 0.074849628 2.1389315
-0.17395604 0.075446226 2.1387336
-0.16942322 0.067754991 2.1665506
-0.16197646 0.074628435 2.139312
-0.15868622 0.075162314 2.1391172
-0.1564974 0.075696968 2.1389551
-0.15421611 0.079365671 2.1380131
-0.15203394 0.078514926 2.1380415
-0.13677494 0.077403605 2.1383674
-0.13448866 0.080864646 2.137836
-0.13120016 0.081589781 2.1378584
-0.12901513 0.081605829 2.1378317
-0.12671508 0.084427312 2.1377938
-0.12452661 0.084330626 2.1377516
-0.11415536 0.060771734 2.1634636
-0.11150033 0.081875801 2.1375718
-0.10942405 0.079102479 2.1375947
-0.10713284 0.081281446 2.1373801
-0.10494772 0.081129603 2.1373115
-0.1015643 0.08246164 2.1370645
-0.099367559 0.082975507 2.137145
-0.097083524 0.084938481 2.137023
-0.096433528 0.060463391 2.1645033
-0.079359017 0.088697992 2.1371908
-0.077289395 0.086383067 2.1367772
-0.075215295 0.084056109 2.1365995
-0.074324638 0.064597502 2.1686697
-0.059965216 0.080688164 2.1356714
-0.057697721 0.082617037 2.1353545
-0.05552727 0.081539094 2.1351697
-0.052283417 0.079648629 2.135047
-0.044156246 0.067229018 2.1640074
-0.035903379 0.076574489 2.13498
-0.033731889 0.075304493 2.1351111
-0.030439155 0.075477019 2.1350379
-0.028220076 0.078135423 2.1348202
-0.026497586 0.068379752 2.1690109
-0.02420048 0.067835659 2.1641414
-0.023603166 0.084294662 2.2551696
-0.021309402 0.084437296 2.2543004
-0.014041203 0.070178658 2.13679
-0.010755694 0.070003167 2.1368513
-0.0085651679 0.069882229 2.1369843
-0.0063941446 0.069749154 2.1372788
-0.0031334742 0.068907388 2.168117
-0.00075972226 0.086536311 2.2404525
0.011214444 0.070528723 2.1358426
0.013400955 0.070412509 2.1359258
0.015594401 0.069503292 2.1370342
0.025473544 0.068774007 2.1384053
0.0276515 0.068947569 2.1386478
0.029409697 0.074416868 2.1865182
0.029833876 0.069000922 2.1386869
0.033644494 0.086014315 2.2444015
0.039490547 0.086085439 2.2550368
0.042891745 0.085363895 2.2551165
0.045165591 0.084871568 2.2541153
0.047453254 0.084382057 2.2541411
0.04694128 0.070619501 2.1668882
0.047378752 0.069191247 2.1371663
0.049076945 0.070190877 2.1639295
0.049568966 0.069230661 2.1374462
0.051274691 0.070054829 2.1629128
0.052851465 0.069361061 2.1376848
0.055015255 0.069902338 2.1382096
0.059140738 0.08170633 2.2737005
0.058788721 0.068199202 2.1558952
0.072549537 0.069417477 2.1373806
0.074732408 0.069431253 2.1373832
0.076919116 0.069418825 2.1372957
0.080916479 0.067487128 2.1576047
0.092160694 0.070439719 2.1356673
0.094359994 0.070235014 2.1358504
0.096551836 0.070796549 2.1354179
0.098740689 0.07058125 2.1355374
0.10077889 0.066936933 2.1574552
0.10288362 0.067129306 2.1555052
0.10490392 0.066808589 2.1515012
0.11395212 0.070835918 2.1348739
0.11613249 0.07081496 2.1348727
0.11836225 0.070064597 2.1358876
0.12258091 0.064836681 2.1541445
0.12579648 0.066347025 2.1525187
0.12826167 0.07192304 2.1353135
0.13145289 0.070779741 2.1354535
0.13363311 0.069638483 2.1363838
0.13582613 0.074592255 2.1338024
0.13799508 0.07001628 2.1359589
0.14573976 0.066124283 2.1545718
0.14765731 0.065443255 2.15046
0.14807324 0.081415042 2.1349247
0.15118331 0.069962956 2.1386054
0.15346226 0.068938188 2.1388271
0.15565273 0.068877853 2.138788
0.15949713 0.066482298 2.1465809
0.16161594 0.065889165 2.1453516
0.16367929 0.06687478 2.1435244
0.16572233 0.067739069 2.1416221
0.16776375 0.068457074 2.1397188
0.17076083 0.071118735 2.1389158
0.17295945 0.069736689 2.1384206
0.17517969 0.068948135 2.137866
0.17701636 0.069304958 2.1461298
0.17737022 0.068857849 2.1377869
0.17920916 0.068474382 2.1460152
0.18124241 0.068229742 2.1439559
0.18334094 0.068171464 2.1429243
0.18537605 0.068294607 2.1408765
0.18866922 0.068803996 2.1411726
0.19076565 0.068735361 2.1402037
0.19504039 0.068873361 2.1509922
0.19698244 0.068785839 2.1480358
0.19901147 0.068656139 2.1460528
0.20110498 0.068501748 2.1450202
0.20321114 0.068615653 2.144067
0.20633943 0.068539873 2.1420817
0.220311 0.081481025 2.2552769
0.21481016 0.06869705 2.1498573
0.21678506 0.068791501 2.147912
0.21879077 0.069099389 2.1460288
0.22200401 0.069120675 2.1450806
0.22410077 0.069000341 2.1440904
0.2260673 0.06876307 2.1421175
0.23949768 0.084296584 2.2531989
0.2416942 0.084315248 2.2522409
0.23768444 0.06886106 2.1477783
0.25771013 0.085818827 2.2521896
0.26101249 0.08571633 2.2512348
0.2632896 0.085723095 2.2511804
0.25223067 0.068912871 2.1496603
0.25540358 0.069093712 2.1487415
0.27936083 0.085607976 2.2512298
0.2816436 0.085408226 2.2511976
0.28520626 0.085230552 2.2521746
0.27699333 0.069230571 2.146009
0.27906063 0.069088086 2.1450713
0.29566243 0.084520057 2.2532675
0.29910401 0.084056698 2.2533064
0.3013339 0.083201915 2.2532694
0.46342927 0.083059907 2.2722566
0.46326724 0.080608778 2.2540834
0.46465972 0.080723353 2.2501996
0.46757042 0.081479311 2.2483714
0.46952593 0.081912525 2.2475462
0.48424208 0.08546 2.2473531
0.48654395 0.085837543 2.2473276
0.49015778 0.086852983 2.248266
0.50397497 0.086625196 2.2482996
0.50751275 0.086235963 2.248368
0.50975424 0.08500728 2.2475109
-0.45972028 0.072231263 2.1521628
-0.45056072 0.073559619 2.1501186
-0.44835666 0.073891729 2.1500678
-0.45521665 0.0810467 2.1857963
-0.44617891 0.074115425 2.1499856
-0.46781623 0.088207349 2.2561071
-0.45122921 0.080811493 2.1828117
-0.44268227 0.074139826 2.1491177
-0.44834509 0.0806517 2.1798353
-0.44025683 0.073950902 2.1482234
-0.46203288 0.087736219 2.2561188
-0.4369837 0.074156411 2.148212
-0.43457231 0.073864795 2.1474078
-0.43129247 0.074014388 2.1474211
-0.44293621 0.084718034 2.2581573
-0.44145551 0.085338011 2.2727556
-0.4424226 0.086016104 2.2837901
-0.4165785 0.080471881 2.1828082
-0.40717357 0.074544318 2.1475279
-0.41227275 0.079570055 2.1779072
-0.40518647 0.075011365 2.1483512
-0.40279618 0.074502699 2.1475301
-0.3994908 0.074761599 2.1476493
-0.38671792 0.076461799 2.1493781
-0.38452685 0.076541178 2.1493888
-0.38123807 0.077101663 2.1494439
-0.37884459 0.076592565 2.1486738
-0.37646797 0.076118402 2.1479697
-0.3731761 0.076827951 2.148042
-0.37098706 0.07708323 2.1480634
-0.36734289 0.075255051 2.1468158
-0.3651638 0.075129606 2.1467726
-0.35250401 0.076092228 2.1485486
-0.35031086 0.076085657 2.1485319
-0.34794465 0.075417839 2.1476891
-0.34464946 0.076331973 2.1478121
-0.34229574 0.075526878 2.1470447
-0.33884898 0.074871249 2.1463485
-0.33682087 0.076108649 2.1470757
-0.33447459 0.075568505 2.1464474
-0.32233998 0.078570001 2.1584516
-0.31942803 0.075465523 2.1473989
-0.31918204 0.077127568 2.1594193
-0.31613311 0.075649939 2.1474066
-0.31667215 0.076560177 2.1574652
-0.31407997 0.076436058 2.1482766
-0.31077272 0.076605171 2.1482735
-0.31052297 0.078521304 2.1681433
-0.30786732 0.077975467 2.1652048
-0.30478191 0.075751677 2.151665
-0.3041271 0.07749892 2.1622579
-0.30136105 0.075486816 2.1507096
-0.29085654 0.078929573 2.170069
-0.28515506 0.073784828 2.1452563
-0.28296381 0.073691264 2.145211
-0.27955487 0.073237889 2.1443012
-0.27737045 0.073312059 2.1443818
-0.27503648 0.072778739 2.143482
-0.28949639 0.08636494 2.273128
-0.27186251 0.073263258 2.1443346
-0.28441739 0.085738786 2.2600148
-0.28159958 0.085637204 2.2560458
-0.27788439 0.085760608 2.2540174
-0.27560729 0.086056001 2.2540393
-0.27329618 0.086304709 2.2540257
-0.26996773 0.086735904 2.254993
-0.25200304 0.072539262 2.142925
-0.24981162 0.072526753 2.1429276
-0.25265759 0.078573748 2.1761081
-0.24664958 0.072579741 2.143764
-0.24433902 0.072461754 2.1428614
-0.25025067 0.087731421 2.2540345
-0.24804762 0.087916523 2.2550094
-0.24562906 0.087809101 2.2540321
-0.24218416 0.087778822 2.2540646
-0.23987055 0.087771811 2.2540624
-0.23095372 0.077702507 2.1812115
-0.2234173 0.072262518 2.1416044
-0.22123237 0.072269917 2.1415226
-0.21891639 0.072620332 2.1403952
-0.21674374 0.072734654 2.1402524
-0.21346033 0.072918639 2.1400964
-0.2239154 0.087203927 2.2551167
-0.22048111 0.08693105 2.2551064
-0.2181797 0.086727664 2.2551081
-0.21579158 0.086292759 2.2540982
-0.21237519 0.085980251 2.2541153
-0.1959313 0.073324583 2.1397119
-0.19373134 0.073323943 2.1397042
-0.19143197 0.074505337 2.138552
-0.20002137 0.084687881 2.2562573
-0.18823625 0.07352443 2.1395485
-0.18603858 0.073847122 2.1393788
-0.18776894 0.071318403 2.1727443
-0.1951817 0.08448144 2.2670755
-0.18526338 0.070513852 2.1697698
-0.1816899 0.069444947 2.1667469
-0.17380065 0.068335272 2.1657279
-0.17065857 0.075891085 2.1385798
-0.17165846 0.068262316 2.1666968
-0.16855226 0.073809788 2.1396966
-0.16635199 0.074592702 2.1393592
-0.16705346 0.067020006 2.1645041
-0.16416019 0.07425601 2.1394577
-0.16357785 0.064959072 2.1618559
-0.16115376 0.064334705 2.1586654
-0.15874104 0.064143322 2.1554458
-0.14666589 0.076617576 2.1385851
-0.1444713 0.077895835 2.1383553
-0.14297055 0.064210556 2.1477425
-0.14124946 0.07378491 2.1395438
-0.13906869 0.074284211 2.139292
-0.13360308 0.061638698 2.1570885
-0.13012888 0.061459821 2.1534615
-0.12134592 0.082826942 2.1377008
-0.11915026 0.083459094 2.137785
-0.11697318 0.082517318 2.1375685
-0.11479578 0.082150802 2.1375003
-0.11175533 0.060125016 2.1582875
-0.093822949 0.084951177 2.1366291
-0.094076924 0.059378654 2.1601739
-0.091528632 0.08753743 2.1366162
-0.08944039 0.085209168 2.1366909
-0.087145813 0.087571725 2.1366854
-0.084957615 0.087490432 2.1366663
-0.081666574 0.087650046 2.1368203
-0.072138801 0.077584043 2.1361313
-0.0699322 0.078193434 2.1360326
-0.067762502 0.077021658 2.1360638
-0.066368133 0.061281346 2.1592143
-0.064330511 0.082385525 2.1357722
-0.062146444 0.082342468 2.135741
-0.04808826 0.071340069 2.1369305
-0.045840409 0.073952623 2.1358795
-0.04246207 0.078484185 2.1348901
-0.040267427 0.078598469 2.1348596
-0.037988 0.082808882 2.1344063
-0.037627228 0.083676629 2.2938561
-0.035103019 0.082654022 2.2656519
-0.023876918 0.076610349 2.1347778
-0.020498442 0.081833757 2.1342371
-0.018379409 0.075422697 2.134433
-0.016245784 0.071171857 2.1357718
-0.015597097 0.085711673 2.2532203
-0.013341166 0.086268321 2.2541392
-0.011036645 0.0864814 2.2532959
-0.0075966544 0.086945802 2.2522411
-0.0064268867 0.069058321 2.1384368
-0.0052942703 0.087171122 2.2512667
-0.0042374344 0.068983674 2.1383514
-0.0029861466 0.087085366 2.2483194
-0.00090939895 0.06959343 2.1371815
0.0012734454 0.06959179 2.1371193
0.0026755761 0.08104153 2.2179146
0.0035025175 0.070284866 2.1361659
0.0056980425 0.070912272 2.1351874
0.0090108644 0.071177512 2.1349916
0.021066736 0.070535138 2.1357577
0.023273157 0.069363631 2.1370628
0.029179676 0.07040868 2.1691203
0.03085305 0.079310574 2.2060699
0.030999972 0.067346439 2.1428413
0.033202216 0.06770654 2.1418133
0.035376925 0.067423835 2.1416745
0.038667515 0.06769973 2.1405811
0.040862594 0.067072906 2.1414661
0.043023732 0.068041287 2.1393888
0.045177568 0.069194391 2.1370056
0.053021487 0.08328978 2.253108
0.052941054 0.067983694 2.1418209
0.055084851 0.068969443 2.141078
0.059099838 0.081305727 2.2786887
0.060501512 0.06926734 2.1389444
0.062705114 0.068869203 2.1385534
0.064871974 0.069278255 2.1373072
0.067017488 0.06986735 2.1362352
0.068421543 0.067301676 2.1468446
0.069226645 0.069356494 2.1369307
0.070566304 0.067416042 2.1447711
0.072731294 0.067230396 2.1436021
0.074889697 0.06758976 2.1425736
0.077001825 0.06811244 2.1404641
0.080269016 0.068421088 2.1393533
0.082414299 0.068941183 2.1383278
0.084554151 0.06944517 2.1374099
0.08672674 0.06945236 2.1374598
0.088205367 0.066837922 2.1475983
0.088885568 0.069468692 2.1375251
0.090331875 0.068312004 2.1458497
0.09240327 0.068382069 2.142731
0.094570272 0.067667104 2.1413431
0.096660331 0.068276167 2.1390967
0.098841935 0.068384901 2.1392398
0.10208837 0.068859957 2.1372757
0.10423066 0.069870792 2.1363025
0.10636939 0.072661631 2.1346197
0.10802538 0.066316783 2.1485236
0.10854797 0.078691565 2.1333082
0.11006351 0.065173253 2.14502
0.11179973 0.074272133 2.1337917
0.11430246 0.0666169 2.1421015
0.11640254 0.067784443 2.1414363
0.1184919 0.068279609 2.139261
0.12170941 0.068827122 2.1371973
0.12385703 0.070411012 2.135901
0.12609039 0.069272533 2.1366708
0.1277855 0.066039853 2.1495082
0.12988408 0.06631247 2.1475086
0.13195732 0.068969607 2.1460094
0.13404477 0.068887845 2.1439657
0.13615644 0.067804463 2.1426704
0.13930391 0.066823661 2.1395426
0.14146402 0.067710772 2.1383219
0.14358173 0.072525695 2.1352463
0.14584249 0.088343605 2.1367671
0.14971444 0.066323765 2.1486819
0.22598147 0.082452022 2.2542875
0.22825558 0.082859583 2.2543583
0.23169558 0.083398283 2.2543304
0.24968077 0.085362881 2.2522633
0.25199065 0.085532695 2.2522018
0.25543669 0.085746266 2.252141
0.27130365 0.08581654 2.25122
0.27486134 0.086036511 2.252176
0.27716935 0.085956909 2.252176
0.28760207 0.085261375 2.2531757
0.29119515 0.08519467 2.254216
0.29347956 0.084973924 2.2542374
0.30511892 0.083086014 2.2563081
0.31056079 0.084351383 2.2712178
0.46452528 0.085552037 2.2995458
0.4644081 0.084646747 2.2823405
0.46390694 0.081776276 2.2622001
0.47521621 0.083450839 2.2476466
0.47860259 0.08436437 2.2475293
0.48087221 0.084851265 2.2474766
0.49574596 0.086874492 2.2473261
0.49824321 0.087084502 2.2483418
0.50174624 0.086881086 2.2483842
-0.49507684 0.087608218 2.2581933
-0.49155191 0.087878093 2.2581983
-0.4704608 0.076596089 2.1756039
-0.46625155 0.073751107 2.1619608
-0.46605399 0.076873235 2.1705773
-0.48198551 0.088363662 2.2571545
-0.45600566 0.07255692 2.1503594
-0.45330265 0.072234385 2.1487665
-0.47596875 0.08832629 2.2561507
-0.44432962 0.080809586 2.1770027
-0.43738386 0.074865215 2.1500802
-0.44038585 0.080093808 2.1740654
-0.43664536 0.079614028 2.1721044
-0.45270401 0.086388133 2.2552645
-0.42950776 0.074901395 2.1492324
-0.45040059 0.086074889 2.2552466
-0.4264228 0.075291909 2.1501248
-0.44716856 0.085493915 2.2562728
-0.42423701 0.075268835 2.1501184
-0.44501969 0.085119516 2.2572451
-0.42071852 0.075209826 2.1492891
-0.41832575 0.074961692 2.148478
-0.41616556 0.074954055 2.1484928
-0.41266239 0.074557349 2.1476731
-0.41045731 0.074633837 2.1477013
-0.40816131 0.078829899 2.1741295
-0.39418525 0.07576675 2.1487236
-0.39219394 0.076228745 2.1495345
-0.39000097 0.076208532 2.1495261
-0.38650629 0.07840509 2.1654439
-0.38429883 0.078786023 2.1654553
-0.38079676 0.079678908 2.1644678
-0.37841213 0.080305539 2.1634672
-0.3749195 0.081071988 2.1624427
-0.3598384 0.07664571 2.1476188
-0.35782945 0.076718882 2.14819
-0.3558051 0.076537043 2.1488397
-0.35478508 0.080163367 2.1548519
-0.35147443 0.080245793 2.1548493
-0.35250756 0.081350856 2.1673605
-0.34876984 0.078852981 2.1521752
-0.3344959 0.079181746 2.1586339
-0.33153293 0.075958163 2.147784
-0.33214357 0.079185158 2.1576691
-0.32932696 0.07591439 2.147743
-0.32883599 0.078371882 2.1576869
-0.32603917 0.075868264 2.1477189
-0.32677528 0.07866852 2.158644
-0.32398009 0.076682843 2.1485715
-0.32455668 0.078698345 2.1586404
-0.32178131 0.07623478 2.1484926
-0.31276879 0.077248082 2.1538491
-0.31041315 0.076174222 2.1528382
-0.30712596 0.075607404 2.1527441
